# .PCD v0.7 - Point Cloud Data file format
VERSION 0.7
FIELDS x y z
SIZE 4 4 4
TYPE F F F
COUNT 1 1 1
WIDTH 2380
HEIGHT 1
VIEWPOINT 0 0 0 1 0 0 0
POINTS 2380
DATA ascii
28 27 1.8200684
28.4375 28 1.5400391
28.875 29 1.5500488
18.1875 -1.5 5.1298828
19 0.5 4.8898926
20.25 4 4.6000977
20.6875 5 4.4199219
21.0625 6 4.2600098
21.5 7 4.2700195
21.875 8.5 4.0300293
22.3125 9.5 3.9099121
22.75 10.5 3.8000488
23.9375 14 3.5
25.1875 17 3.0900879
25.625 18 2.9699707
26 19.5 2.8999023
28.5 26 1.9299316
28.9375 27 1.7800293
29.375 28 1.5200195
29.75 29 1.5100098
21.0625 3 4.5800781
21.5 4 4.5
21.875 5.5 4.3999023
22.3125 6.5 4.3500977
23.9375 11 3.75
24.75 13 3.6201172
25.1875 14 3.3999023
26.8125 18.5 2.8898926
30.5625 28.5 1.5300293
21.625 2.5 4.7800293
22 3.5 4.6799316
22.4375 4.5 4.5
22.875 6 4.4199219
23.25 7 4.2399902
23.6875 8 4.0800781
24.125 9 3.9899902
24.5 10 3.8798828
25.375 12.5 3.5800781
25.75 13.5 3.4899902
26.1875 14.5 3.3798828
29.0625 22 2.2900391
29.5 23 2.1699219
29.9375 24.5 2.0400391
30.75 26.5 1.7700195
31.1875 27.5 1.6201172
31.5625 29 1.5300293
22.3125 3 4.6799316
22.75 4 4.5700684
23.1875 5 4.4399414
23.5625 6 4.3798828
24 7 4.2399902
24.375 8 4.1101074
24.8125 9.5 3.9799805
25.625 11.5 3.6799316
26.0625 12.5 3.6298828
26.5 14 3.4099121
26.875 15 3.3200684
29.375 21.5 2.3898926
29.8125 22.5 2.1999512
30.25 23.5 2.1101074
30.625 24.5 2.0100098
31.0625 26 1.8300781
31.5 27 1.7199707
31.875 28 1.5600586
32.75 30 1.3000488
22.8125 2 4.7900391
23.625 4 4.5600586
24.0625 5 4.4299316
26.9375 13 3.5500488
27.75 15 3.25
29.875 20.5 2.5700684
30.25 21.5 2.3798828
31.9375 26 1.8000488
32.375 27 1.6899414
33.625 30.5 1.4399414
23.125 0 5.0400391
27.6875 12 3.6000977
28.0625 13 3.6000977
28.5 14 3.3200684
28.9375 15.5 3.3000488
33.125 26.5 1.7199707
34.3125 29.5 1.4499512
23.125 -1.5 5.2700195
23.5625 -0.5 5.2299805
26.875 8 4.1298828
28.125 11.5 3.7299805
28.5 12.5 3.6398926
28.9375 13.5 3.3999023
31 19 2.7299805
32.25 22.5 2.1298828
33.5 25.5 1.7700195
33.9375 27 1.6599121
34.75 29 1.3601074
23.625 -1.5 5.3000488
26.9375 7.5 4.1999512
28.625 12 3.6699219
29.4375 14 3.4699707
31.125 18.5 2.8000488
32.375 21.5 2.3798828
32.75 23 2.0900879
33.625 25 1.8500977
34 26 1.7800293
35.25 29.5 1.2900391
24.5 -1 5.4099121
26.1875 3 4.6899414
26.625 4 4.5600586
27 5.5 4.5300293
27.4375 6.5 4.3100586
27.8125 7.5 4.3100586
30.75 15 3.3200684
31.1875 16.5 3.0700684
31.5625 17.5 2.8601074
32 18.5 2.7900391
33.25 22 2.2900391
34.125 24 2.0200195
34.5 25 1.8601074
35.75 28.5 1.4899902
36.1875 29.5 1.3500977
28.625 6.5 4.3100586
29.4375 8.5 4.1201172
29.875 10 3.8500977
30.25 11 3.7199707
33.1875 18.5 2.8500977
34.4375 22 2.3100586
34.875 23 2.1398926
35.25 24 2.0100098
35.6875 25 1.9199219
36.9375 28.5 1.5200195
37.375 29.5 1.3300781
37.8125 30.5 1.1499023
27.375 1.5 5.0300293
27.8125 2.5 4.9499512
29.875 8 4.1000977
30.75 10 3.7099609
31.125 11 3.6999512
35.3125 22 2.2399902
35.75 23.5 2.1298828
36.125 24.5 1.9899902
36.5625 25.5 1.9399414
37 26.5 1.8400879
37.375 28 1.6599121
37.8125 29 1.4499512
38.25 30 1.3000488
38.6875 31 1.1000977
27.9375 2 5.0100098
31.25 10.5 3.7299805
31.6875 12 3.6499023
33.375 16 3.1101074
33.75 17 2.9399414
35.4375 21.5 2.3200684
35.875 22.5 2.1699219
36.3125 24 2.0700684
36.6875 25 1.9899902
37.125 26 1.9199219
37.5625 27 1.8100586
37.9375 28 1.6000977
38.375 29.5 1.4199219
38.8125 30.5 1.2900391
31.75 10 3.8500977
32.125 11 3.7900391
32.5625 12 3.6599121
33.375 14 3.3300781
33.8125 15 3.1699219
34.1875 16.5 3.1000977
34.625 17.5 2.9099121
35.875 21 2.4899902
36.3125 22 2.3601074
37.125 24 2.1398926
37.5625 25 2.0400391
38 26 1.9699707
38.375 27.5 1.8701172
38.8125 28.5 1.6699219
39.25 29.5 1.3999023
29.5 1 5.0800781
32.4375 9 4
32.875 10 4.0600586
33.6875 12 3.6101074
34.125 13 3.5100098
34.5625 14.5 3.3798828
34.9375 15.5 3.3200684
37.0625 21 2.6699219
37.875 23 2.3898926
38.3125 24 2.2800293
38.6875 25.5 2.2299805
39.125 26.5 2.1298828
39.5625 27.5 1.9599609
40 28.5 1.6799316
40.375 29.5 1.4399414
30.625 1.5 5.1000977
33.5 9 4.0200195
33.9375 10.5 4.0200195
34.75 12.5 3.6699219
35.1875 13.5 3.4799805
35.625 14.5 3.3999023
36 16 3.2900391
38.5 22.5 2.5600586
38.9375 23.5 2.4199219
39.375 24.5 2.3898926
39.75 25.5 2.3701172
41.0625 29 1.6699219
30.0625 -1.5 5.6699219
30.5 -0.5 5.3100586
30.9375 0.5 5.1899414
34.25 9.5 4
35.0625 11.5 3.8601074
35.5 12.5 3.6201172
35.9375 14 3.4899902
36.3125 15 3.3898926
36.75 16 3.25
39.25 22.5 2.5
39.6875 23.5 2.5200195
40.0625 25 2.4299316
41.75 29 1.5400391
42.1875 30 1.3300781
42.625 31.5 1
31.375 0 5.3701172
36.375 13 3.6298828
36.75 14 3.5300293
37.1875 15 3.3701172
37.625 16 3.2099609
38 17 3.2099609
40.125 22.5 2.6298828
40.5 24 2.5800781
40.9375 25 2.4399414
42.6875 29 1.5400391
43.5 31.5 0.93994141
34.3125 4 4.6298828
34.75 5.5 4.5400391
35.125 6.5 4.4099121
38.9375 16 3.2600098
40.125 19.5 3.0100098
40.5625 20.5 3.0200195
42.25 25 2.4399414
43.9375 29.5 1.5800781
35.0625 3.5 4.7800293
39.1875 14.5 3.5200195
39.625 15.5 3.4399414
41.3125 20 3.0100098
43.375 25 2.3701172
45.5 31 1.1899414
34.5625 0.5 5.2299805
39.9375 14.5 3.8100586
42.0625 20 3.0900879
43.75 24.5 2.4899902
44.1875 25.5 2.1599121
45 27.5 1.7199707
46.3125 31 1.1499023
35.0625 -1 5.3601074
35.5 0 5.2199707
35.9375 1.5 5.0500488
36.3125 2.5 5.0200195
36.75 3.5 4.9499512
37.5625 6 4.6398926
38.8125 9 4.2199707
39.6875 11 3.8999023
40.5 13.5 3.7800293
40.9375 14.5 3.6101074
41.3125 15.5 3.5500488
41.75 16.5 3.5800781
42.5625 19 3.2900391
44.6875 24.5 2.4299316
45.125 25.5 2.0900879
45.5625 26.5 1.9299316
46 27.5 1.7700195
47.25 31 1.1201172
36.4375 -1 5.4899902
36.8125 0 5.3300781
37.25 1.5 5.2600098
37.6875 2.5 5.1599121
38.0625 3.5 4.9399414
39.375 7 4.5600586
39.75 8 4.4499512
40.1875 9 4.2299805
40.625 10 4.1499023
41 11 3.9899902
41.4375 12 3.9399414
42.25 14.5 3.7099609
45.25 22 2.7600098
45.625 23 2.6101074
46.0625 24 2.3500977
38.9375 2.5 5.1899414
40.625 7 4.5800781
41 8 4.4399414
41.4375 9 4.3400879
41.875 10 4.3000488
42.25 11 4.1201172
43.9375 15.5 3.6499023
46.0625 21 2.8798828
46.5 22 2.7199707
40.25 3.5 5.0400391
40.6875 4.5 4.9199219
41.125 6 4.8200684
41.5 7 4.6101074
41.9375 8 4.4799805
42.375 9 4.3601074
42.75 10 4.2299805
43.1875 11 4.1398926
46.125 19 3.2299805
46.5625 20 3.0200195
47 21 2.8999023
47.375 22 2.8100586
41.3125 3.5 5.2299805
41.75 4.5 5.1101074
42.5625 6.5 4.7199707
43 8 4.5900879
43.4375 9 4.5100098
43.8125 10 4.3601074
44.25 11 4.1999512
44.6875 12 4.0500488
45.0625 13 3.9499512
45.5 14.5 4.1298828
46.75 17.5 3.6499023
47.1875 18.5 3.2099609
47.625 20 3.0900879
41 -1 5.7900391
42.6875 3.5 5.3000488
43.0625 4.5 5.2099609
43.5 5.5 5.0400391
46 12 4.1599121
47.75 16.5 3.5400391
43.5 2.5 5.4599609
43.9375 3.5 5.3601074
44.375 4.5 5.1799316
44.125 1.5 5.5700684
44.9375 3.5 5.3400879
45.375 4.5 5.1599121
47.5 10 4.3400879
44.5625 -1 6.0200195
45 0 5.8100586
45.4375 1 5.6899414
45.875 2 5.5100098
0 29 0.68994141
0.4375 30 0.77001953
0.875 31 0.68994141
0.125 26 1.1499023
0.5625 27 0.97998047
1.0625 28 0.87988281
2.25 23 1.4899902
3.1875 25 1.3999023
3.3125 22 1.7900391
3.75 23 1.6000977
4.1875 24 1.5700684
4.625 25 1.5100098
5.0625 26 1.6298828
5.5625 27.5 1.3400879
6 28.5 1.1298828
6.4375 29.5 1.0100098
0.375 11 2.25
0.8125 12 2.2900391
1.25 13 2.2900391
3.5 18.5 2.2299805
3.9375 19.5 2.0300293
4.375 21 1.9599609
6.1875 25 1.6101074
6.625 26.5 1.4399414
7.0625 27.5 1.2600098
7.5 28.5 1.1899414
1.25 8.5 2.6201172
1.6875 10 2.5400391
2.125 11 2.5900879
2.5625 12 2.5400391
3 13 2.5700684
3.9375 15.5 2.6101074
4.8125 17.5 2.3898926
5.25 18.5 2.3100586
7.9375 25 1.6799316
8.4375 26.5 1.4799805
8.875 27.5 1.3798828
10.1875 31 1.2700195
2 7 3.0400391
2.4375 8 2.9299316
2.9375 9 2.9099121
3.8125 11 2.8000488
4.25 12 2.7399902
5.125 14.5 2.8898926
9.1875 24.5 1.8798828
9.625 25.5 1.7600098
10.0625 26.5 1.6000977
2.9375 6 3.1899414
3.4375 7 3.1799316
4.75 10 3.0200195
5.1875 11.5 2.9499512
5.625 12.5 2.9699707
7 16 2.8300781
7.4375 17 2.7299805
7.875 18 2.6699219
10.5625 24.5 1.9399414
11 25.5 1.8400879
11.5 27 1.6599121
12.8125 30 1.2299805
13.25 31 1.1599121
2.75 1.5 3.6398926
3.1875 2.5 3.5100098
5.875 9 3.1799316
6.3125 10.5 3.1799316
8.5 16 2.8999023
9 17 2.8000488
9.4375 18 2.6398926
10.75 21.5 2.3701172
11.25 22.5 2.2900391
11.6875 23.5 2.1201172
12.125 24.5 2
14.375 30 1.3798828
14.8125 31 1.2700195
3.5625 -0.5 4.0600586
4 0.5 4.0100098
4.5 1.5 3.9899902
4.9375 2.5 3.8200684
7.125 8 3.4799805
8.0625 10.5 3.3100586
8.5 11.5 3.3400879
8.9375 12.5 3.2800293
9.375 13.5 3.1499023
9.8125 15 3.1000977
10.25 16 3.0800781
11.1875 18 2.9399414
12.5 21.5 2.5100098
13.4375 23.5 2.2199707
5.125 -0.5 4.2700195
5.5625 1 4.1499023
6.5 3 3.8798828
6.9375 4 3.7600098
7.375 5 3.7700195
7.8125 6 3.7299805
8.25 7.5 3.6599121
9.1875 9.5 3.5900879
9.625 10.5 3.5
11.8125 16 3.0700684
12.3125 17 2.9799805
14.5 23 2.3200684
15 24 2.2800293
6.5 0 4.2600098
7.875 3 3.9699707
8.75 5.5 3.8898926
10.0625 8.5 3.9199219
10.5625 10 3.6899414
11 11 3.6699219
12.3125 14 3.3400879
12.75 15 3.2800293
13.25 16.5 3.1398926
13.6875 17.5 3.0100098
14.125 18.5 2.8898926
15.4375 22 2.6499023
15.9375 23 2.4199219
16.375 24 2.2900391
16.8125 25 2.1899414
17.25 26 2.1699219
17.6875 27 1.8798828
18.1875 28.5 1.7099609
19.0625 30.5 1.3701172
7.625 -1.5 4.3898926
8.0625 0 4.2600098
10.3125 5 4.0200195
12.5625 11 3.6799316
13 12 3.6298828
13.4375 13 3.5500488
13.875 14 3.3601074
14.75 16 3.1201172
16.5625 20.5 2.7099609
17 22 2.5400391
17.4375 23 2.4699707
17.9375 24 2.3400879
18.375 25 2.1899414
18.8125 26 2.0300293
19.25 27 1.9299316
20.625 30.5 1.3898926
11.5625 4 4.1499023
12 5.5 4.1201172
12.4375 6.5 4.0500488
13.75 10 3.8898926
14.25 11 3.8000488
18.25 20.5 2.6999512
18.6875 22 2.6499023
20.5 26 2
20.9375 27 1.8999023
21.8125 29.5 1.5900879
22.3125 30.5 1.3898926
12.625 3.5 4.2800293
14 6.5 4.2199707
15.75 11 3.8701172
16.6875 13 3.5400391
17.125 14.5 3.3798828
21.125 24 2.3601074
13.5625 2.5 4.3798828
14 3.5 4.3701172
15.75 8 4
17.5625 12.5 3.5700684
18 13.5 3.4599609
22.0625 23 2.3601074
25.1875 31 1.3701172
14.125 0 4.7700195
14.5625 1 4.6799316
18.625 11 3.6398926
19.5 13.5 3.4899902
19.9375 14.5 3.3500977
20.375 15.5 3.2600098
20.8125 16.5 3.2399902
21.25 17.5 3.0300293
22.625 21 2.6699219
23.0625 22 2.4599609
23.5 23 2.3500977
26.25 30 1.5300293
26.6875 31 1.4699707
15.375 -1 4.9899902
18.5 6.5 4.1599121
21.1875 13 3.4299316
21.625 14.5 3.3601074
23 17.5 3.0400391
23.875 20 2.8000488
24.3125 21 2.6799316
24.75 22 2.3999023
25.25 23 2.2299805
25.6875 24 2.1101074
27.4375 28.5 1.5200195
17.375 0.5 4.9299316
18.25 2.5 4.7099609
18.75 3.5 4.5800781
19.1875 4.5 4.4299316
19.625 6 4.3200684
20.0625 7 4.1899414
22.75 13.5 3.5100098
24.0625 17 3.1899414
24.5 18 3.0700684
25 19 2.9399414
26.3125 22 2.3701172
28.125 26.5 1.8300781
28.5625 28 1.6101074
20.0625 4 4.5500488
21 6 4.3000488
21.4375 7 4.2600098
21.875 8 4.1298828
22.3125 9 3.9599609
22.75 10.5 3.8000488
24.125 13.5 3.5100098
25 16 3.2299805
25.4375 17 3.2099609
25.9375 18 3.0300293
26.375 19 3.0700684
29.9375 28 1.6298828
30.375 29 1.4599609
21.1875 2.5 4.6899414
21.625 3.5 4.6101074
22.0625 5 4.4899902
22.5 6 4.3500977
22.9375 7 4.25
23.375 8 4.1298828
24.3125 10.5 3.9399414
25.1875 12.5 3.6899414
25.625 13.5 3.5
28.75 21 2.4299316
29.25 22.5 2.3100586
30.125 24.5 2.0300293
31 27 1.7700195
31.5 28 1.6599121
32.375 30 1.3200684
22.4375 1.5 4.8200684
23.375 3.5 4.7099609
23.8125 5 4.5300293
24.6875 7 4.2800293
25.125 8 4.2199707
27.375 13.5 3.4399414
27.8125 14.5 3.3200684
28.25 16 3.1599121
30.0625 20 2.6000977
32.3125 25.5 1.8601074
32.75 26.5 1.6999512
23.0625 -0.5 5.1000977
27.0625 9.5 3.9799805
28 11.5 3.7099609
28.875 14 3.3898926
29.3125 15 3.3000488
32 21.5 2.3000488
32.5 22.5 2.1298828
33.375 25 1.8898926
33.8125 26 1.75
34.6875 28 1.6201172
35.1875 29 1.3400879
23.875 -1 5.3601074
25.6875 3 4.7199707
26.125 4 4.5500488
27 6.5 4.3701172
27.4375 7.5 4.2199707
30.125 14 3.3500977
30.5625 15 3.3898926
31.0625 16 3.0500488
31.5 17.5 2.9399414
31.9375 18.5 2.7700195
33.25 21.5 2.3300781
34.1875 24 2.0300293
34.625 25 1.8500977
36 28 1.5
26.75 2 5.0100098
27.1875 3 4.7700195
28.5625 6.5 4.2900391
29.875 9.5 3.9699707
30.3125 11 3.6999512
34.8125 22 2.3601074
35.25 23 2.1201172
35.6875 24 2.0500488
36.1875 25 1.9199219
37.0625 27 1.7099609
37.5 28.5 1.5600586
37.9375 29.5 1.3798828
38.4375 30.5 1.1999512
28.0625 1 5.1298828
29.875 5.5 4.5600586
31.6875 10 3.8701172
32.125 11 3.8300781
32.5625 12 3.7199707
33.4375 14 3.3200684
33.9375 15 3.1799316
34.375 16.5 3.1398926
36.125 21 2.5100098
37.5 24 2.2299805
37.9375 25 2.1201172
38.375 26 2.0400391
38.8125 27.5 1.9299316
39.3125 28.5 1.6799316
39.75 29.5 1.4699707
29.625 1.5 5.1101074
34.0625 12 3.6298828
34.5 13.5 3.5600586
35 14.5 3.3701172
35.4375 15.5 3.4199219
38.125 22 2.5200195
38.5625 23 2.4199219
39 24.5 2.3798828
39.4375 25.5 2.2900391
40.8125 29 1.7600098
29.5 -2 5.5100098
30.375 0.5 5.2299805
34 9 4
34.875 11.5 3.8999023
35.3125 12.5 3.6599121
35.75 13.5 3.5300293
36.1875 14.5 3.4399414
36.625 16 3.25
39.3125 22.5 2.5500488
39.75 23.5 2.5400391
40.25 24.5 2.4599609
42 29 1.5900879
42.5 30 1.4399414
42.9375 31 1.1000977
31.4375 -0.5 5.4799805
35 8 4.2199707
37.25 13.5 3.5300293
37.6875 14.5 3.4199219
40.375 21.5 2.7800293
41.75 24.5 2.4399414
43.5 29 1.5900879
44.4375 31 1.1000977
34.5625 3 4.8898926
35 4 4.7600098
39.5 15 3.5200195
46.1875 31 1.1000977
34.6875 0 5.3000488
35.125 1 5.2299805
35.5625 2 5.0500488
38.25 8.5 4.2900391
40.5 14 3.7600098
40.9375 15 3.5800781
44.5 24 2.5300293
44.9375 25 2.25
45.4375 26 1.9899902
45.875 27 1.7800293
47.1875 30.5 1.2600098
35.375 -1 5.4599609
35.8125 0 5.3898926
36.25 1 5.2900391
36.75 2 5.1000977
37.1875 3.5 4.9399414
37.625 4.5 4.8300781
39.4375 9 4.3500977
39.875 10 4.1298828
41.1875 13 3.8300781
41.625 14.5 3.6699219
42.5625 16.5 3.4799805
43 17.5 3.3798828
43.4375 18.5 3.2600098
45.25 23 2.6799316
47.5 28.5 1.5600586
36.9375 -1 5.4599609
37.375 0 5.3798828
37.875 1 5.2900391
38.3125 2 5.1799316
38.75 3.5 5.0300293
40.0625 6.5 4.6201172
40.5 7.5 4.4699707
41 9 4.3500977
41.4375 10 4.2199707
41.875 11 4.1000977
42.3125 12 4.1101074
42.75 13 3.8000488
43.6875 15.5 3.6899414
45.875 21 2.8898926
46.375 22 2.7900391
40.4375 3 5.1201172
40.875 4.5 5.0100098
41.8125 6.5 4.7399902
42.25 7.5 4.5800781
42.6875 9 4.4299316
43.125 10 4.3100586
43.5625 11 4.1799316
44.5 13 3.8898926
44.9375 14 3.8701172
46.25 17.5 3.5100098
46.75 18.5 3.2099609
47.1875 19.5 3.0700684
47.625 21 2.9099121
39.625 -2 5.8300781
41 1.5 5.6101074
41.875 3.5 5.1999512
42.75 6 4.9499512
43.1875 7 4.7399902
43.625 8 4.6398926
44.125 9 4.5200195
44.5625 10 4.4399414
45 11 4.2299805
45.4375 12.5 4.1499023
45.875 13.5 3.9299316
46.75 15.5 3.8200684
47.25 17 3.7199707
47.6875 18 3.3798828
40.8125 -1.5 5.9499512
42.625 2.5 5.3999023
43.0625 4 5.2800293
43.5 5 5.1499023
43.625 1.5 5.5300293
44.0625 2.5 5.4599609
44.5 4 5.3400879
45 5 5.1398926
47.6875 11.5 4.1999512
44 -2 6.1101074
44.4375 -0.5 5.9299316
44.875 0.5 5.7299805
45.3125 1.5 5.5800781
47.125 6 5.0900879
45.8125 -0.5 5.9899902
47.0625 -0.5 6.0600586
0.375 30 0.67993164
0.8125 31 0.72998047
0.25 26 1.0800781
0.6875 27 0.90991211
1.1875 24.5 1.2199707
1.5625 25.5 1.1201172
0 17 2.0100098
0.875 19 1.7099609
1.6875 21.5 1.5800781
2.125 22.5 1.4799805
3 25 1.4299316
2.5 20 1.8798828
3.375 22 1.7399902
3.75 23 1.6201172
4.1875 24.5 1.5700684
5.0625 26.5 1.5500488
5.5 27.5 1.2700195
0.0625 10.5 2.2299805
0.5 11.5 2.2299805
0.9375 13 2.3000488
3.5 19.5 1.9799805
3.875 20.5 1.8999023
5.1875 24 1.7700195
5.625 25 1.5800781
6 26 1.4899902
6.4375 27 1.3300781
6.875 28 1.2099609
0.6875 8.5 2.5200195
1.0625 10 2.4399414
1.5 11 2.3898926
1.9375 12 2.4199219
4.0625 17.5 2.3300781
4.5 18.5 2.2800293
7.0625 25 1.6799316
7.5 26 1.5
7.9375 27 1.3000488
8.375 28.5 1.2299805
8.75 29.5 1.1499023
2 8 2.8999023
2.4375 9 2.8000488
2.8125 10 2.7299805
3.25 11 2.6899414
3.6875 12 2.6499023
4.125 13.5 2.6398926
4.5625 14.5 2.6599121
5 15.5 2.5700684
7.5625 22 2.1000977
8.375 24 1.8798828
8.8125 25.5 1.7299805
9.25 26.5 1.5500488
2.8125 6 3.1699219
4.125 9 3.0400391
4.5625 10.5 2.9699707
5 11.5 2.9199219
5.8125 13.5 2.8701172
6.6875 16 2.8898926
7.125 17 2.7099609
10.125 24.5 1.9299316
10.5625 25.5 1.7800293
10.9375 26.5 1.6599121
12.25 30 1.2900391
12.6875 31 1.1799316
2 0.5 3.7199707
2.4375 2 3.5800781
5.4375 9.5 3.1699219
5.875 10.5 3.1201172
8 16 2.8601074
8.4375 17 2.7900391
8.875 18 2.6799316
10.125 21.5 2.2900391
10.5625 22.5 2.2600098
11 23.5 2.0900879
11.4375 24.5 1.9799805
13.5625 30 1.2800293
14 31 1.1999512
2.9375 -0.5 3.8300781
3.375 1 3.7700195
6.375 8.5 3.4699707
6.8125 9.5 3.2099609
8.5 14 3.0700684
8.9375 15 2.9899902
9.375 16 2.9099121
9.8125 17 2.8200684
10.25 18 2.7600098
11.5 21.5 2.5
11.9375 22.5 2.2600098
12.375 23.5 2.1398926
14.5 29 1.5900879
14.9375 30 1.3701172
4 -1.5 4.2700195
4.4375 0 4.1799316
4.875 1 4.2900391
5.3125 2 3.9799805
5.75 3 3.7900391
7.4375 7.5 3.6398926
8.3125 9.5 3.5
8.75 10.5 3.4399414
9.125 12 3.2900391
9.5625 13 3.25
10.4375 15 3.1000977
11.3125 17 2.9599609
12.5625 20.5 2.6499023
13.4375 22.5 2.3999023
13.875 23.5 2.25
5.25 -1 4.3601074
5.6875 0 4.2399902
6.9375 3 3.8601074
7.375 4.5 3.8000488
7.8125 5.5 3.75
8.25 6.5 3.7099609
9.125 9 3.7600098
9.5 10 3.5600586
11.6875 15 3.1899414
12.0625 16.5 3.0300293
14.625 23 2.4299316
15.0625 24 2.2800293
16.8125 28 1.6799316
17.625 30.5 1.4799805
18.0625 31.5 1.2900391
6.3125 -1 4.3000488
7.625 2 4.0700684
8.9375 5.5 3.9199219
10.1875 9 3.7900391
11.9375 13 3.4299316
12.3125 14 3.3300781
12.75 15 3.3100586
13.1875 16.5 3.1000977
15.3125 22 2.6499023
15.75 23 2.4299316
16.1875 24 2.2800293
16.625 25 2.1799316
17.0625 26 2.1699219
17.5 27 1.8798828
17.875 28 1.6999512
18.3125 29.5 1.5800781
18.75 30.5 1.4099121
19.1875 31.5 1.2800293
7.75 -1.5 4.4299316
8.1875 -0.5 4.3000488
10.3125 5 4.0400391
12.4375 10.5 3.7600098
12.875 11.5 3.7099609
13.75 14 3.3898926
16.3125 20 2.7800293
16.6875 21.5 2.6000977
17.125 22.5 2.4899902
17.5625 23.5 2.3701172
18 24.5 2.2199707
18.4375 25.5 2.0900879
18.875 26.5 1.9899902
11.25 3.5 4.1999512
11.6875 4.5 4.1201172
12.125 6 4.0800781
12.5625 7 4.0200195
13.375 9 3.8898926
17.6875 20 2.7900391
18.125 21 2.6899414
20.25 26.5 1.9899902
20.6875 27.5 1.9099121
21.0625 28.5 1.6499023
21.5 29.5 1.5500488
21.9375 30.5 1.3798828
12.375 4 4.2299805
13.25 6 4.2099609
14.9375 10.5 3.8200684
15.8125 12.5 3.6201172
16.25 13.5 3.4699707
18.8125 20 2.7800293
20.5 24.5 2.1899414
22.625 30 1.5
23.0625 31 1.3601074
12.875 2.5 4.3999023
15.5 9 3.8898926
15.875 10.5 3.8300781
16.3125 11.5 3.7800293
16.75 12.5 3.6398926
17.1875 13.5 3.4499512
19.3125 19 2.8898926
21 23 2.3601074
21.4375 24.5 2.3100586
24 31 1.2800293
13.5625 1 4.5800781
14 2 4.4499512
14.8125 4.5 4.3000488
17.4375 11 3.7600098
17.8125 12 3.6000977
18.25 13 3.5300293
25.0625 30.5 1.4199219
25.5 31.5 1.3200684
18.25 9.5 3.8898926
18.6875 10.5 3.7299805
19.9375 13.5 3.4199219
20.375 15 3.3500977
20.8125 16 3.2299805
21.25 17 3.1101074
22.5 20 2.8000488
22.9375 21 2.6298828
23.375 22 2.4299316
26.375 30 1.5100098
26.8125 31 1.4799805
18.5625 7 4.1499023
19.4375 9 3.8200684
21.125 13.5 3.4499512
21.5625 14.5 3.3500977
22.4375 16.5 3.2299805
23.25 18.5 2.9199219
23.6875 20 2.8100586
24.125 21 2.7299805
24.5625 22 2.4599609
25 23 2.2299805
26.6875 27.5 1.8500977
16.8125 0 4.8999023
17.625 2 4.75
18.9375 5.5 4.3300781
19.375 6.5 4.2399902
21.9375 13 3.5
23.625 17.5 3.1999512
24.0625 18.5 3.1101074
24.5 19.5 2.8400879
25.75 23 2.2199707
27.875 28 1.6899414
18.625 2 4.8000488
19.0625 3 4.6201172
19.4375 4 4.5600586
20.3125 6 4.2700195
21.625 9.5 3.8798828
22 10.5 3.7600098
22.4375 11.5 3.6699219
22.875 12.5 3.6499023
24.5625 17 3.1699219
25 18 3.0200195
25.4375 19 2.8999023
26.3125 21 2.6499023
28 25.5 1.9899902
28.4375 26.5 1.8500977
28.875 28 1.6298828
29.3125 29 1.4599609
20.6875 3.5 4.6201172
21.125 4.5 4.5400391
21.5625 5.5 4.3500977
22 6.5 4.4899902
23.25 10 3.9199219
24.5625 13 3.5700684
30.5625 28 1.6101074
31.8125 31.5 1.3300781
21.375 2 4.7700195
21.75 3 4.7299805
22.1875 4 4.5700684
22.625 5 4.4799805
23.0625 6 4.3100586
23.5 7.5 4.2199707
23.9375 8.5 4.1101074
24.375 9.5 3.9699707
24.75 10.5 3.8400879
25.1875 11.5 3.7299805
25.625 13 3.6599121
26.0625 14 3.4599609
29.0625 21.5 2.4499512
29.5 22.5 2.25
29.875 23.5 2.1000977
30.75 25.5 1.8999023
31.1875 27 1.7600098
31.625 28 1.6999512
32.0625 29 1.5
32.4375 30 1.3601074
22.25 1.5 4.8500977
22.625 2.5 4.6899414
23.0625 3.5 4.6499023
23.5 4.5 4.5300293
23.9375 6 4.3999023
24.375 7 4.3701172
24.8125 8 4.1799316
26.5 12.5 3.7800293
27.375 14.5 3.3798828
29.5 20 2.6201172
29.9375 21 2.4499512
30.375 22 2.2900391
31.625 25 1.9699707
32.0625 26.5 1.8100586
33.3125 29.5 1.3701172
22.9375 0 5.1101074
26.75 9.5 4.0300293
27.625 11.5 3.7800293
28.0625 12.5 3.5700684
28.5 14 3.4199219
28.9375 15 3.2299805
30.1875 18 2.9699707
30.625 19 2.75
32.75 24.5 1.9899902
33.1875 25.5 1.8000488
34.5 29 1.3999023
23.8125 -2 5.3500977
25.5 2.5 4.8601074
25.9375 3.5 4.6398926
26.8125 5.5 4.4499512
27.25 7 4.2600098
29.8125 13 3.4599609
30.25 14.5 3.3500977
30.625 15.5 3.2600098
31.5 17.5 2.9199219
32.8125 21 2.4399414
33.25 22 2.2900391
34.0625 24 2.0200195
35.8125 28.5 1.5200195
26.625 2 4.9199219
27 3.5 4.7299805
27.875 5.5 4.4799805
28.3125 6.5 4.3300781
33.875 20.5 2.5100098
34.3125 21.5 2.3400879
34.75 23 2.1499023
35.125 24 2.0500488
35.5625 25 1.9499512
36.4375 27 1.7399902
36.875 28 1.5900879
37.3125 29 1.3701172
37.75 30 1.2399902
38.125 31.5 1.0800781
29.5 7.5 4.1899414
29.9375 8.5 4.1398926
30.375 9.5 3.8999023
30.8125 10.5 3.7900391
35.0625 21.5 2.4199219
35.5 22.5 2.1899414
35.9375 23.5 2.1101074
36.375 24.5 1.9799805
36.8125 26 1.9199219
37.25 27 1.8500977
37.6875 28 1.6499023
38.0625 29 1.4399414
38.5 30 1.3300781
27.9375 0.5 5.2399902
29.625 5 4.5900879
31.3125 9 4.0400391
31.75 10 3.8400879
32.1875 11.5 3.7299805
33.5 14.5 3.3000488
33.9375 15.5 3.1699219
34.3125 16.5 3.0300293
35.625 20 2.6599121
36.0625 21 2.4399414
36.9375 23 2.2199707
37.3125 24 2.1298828
37.75 25.5 2.0400391
38.1875 26.5 1.9699707
38.625 27.5 1.8200684
39.0625 28.5 1.6699219
29.3125 0 5.2600098
29.75 1 5.1201172
32.75 8.5 4.0400391
33.1875 10 3.9399414
34.5 13 3.5800781
34.9375 14 3.4199219
35.3125 15 3.3601074
37.9375 21.5 2.5200195
38.3125 22.5 2.4599609
38.75 24 2.3798828
39.1875 25 2.3601074
40.5 28 1.8999023
40.9375 29 1.5200195
30.25 -1.5 5.5400391
34.125 8 4.1398926
34.5 9.5 4.0500488
34.9375 10.5 3.9199219
35.375 11.5 3.8400879
35.8125 12.5 3.6499023
36.25 13.5 3.5300293
36.6875 15 3.3999023
37.125 16 3.3100586
37.5 17 3.1499023
39.6875 22.5 2.6499023
40.125 23.5 2.5900879
42.25 29 1.6298828
42.6875 30 1.4799805
43.125 31 1.2299805
33.625 5 4.5700684
34.5 7 4.3701172
34.9375 8 4.2900391
37.0625 13.5 3.6201172
40.0625 21 2.8601074
41.375 24 2.5300293
43.0625 28.5 1.6499023
43.9375 30.5 1.1799316
34.125 3.5 4.7700195
34.5 4.5 4.6201172
34.9375 5.5 4.5600586
38.375 14 3.5200195
38.8125 15 3.3400879
40.125 18.5 3.0400391
40.5 19.5 3.0400391
42.25 24 2.5200195
39.6875 14 3.6499023
43.5625 23.5 2.6201172
44 25 2.4399414
44.4375 26 2.0400391
46.125 30 1.3300781
46.5625 31 1.1398926
34.9375 -1.5 5.4499512
35.375 0 5.3000488
36.25 2 5.1101074
37.125 4 4.8300781
37.5 5 4.6499023
38.8125 8.5 4.3000488
39.25 9.5 4.2600098
39.6875 10.5 3.9699707
40.5 13 3.8100586
40.9375 14 3.7399902
41.8125 16 3.5200195
42.25 17 3.3999023
42.6875 18 3.3000488
45.6875 25.5 1.9899902
47 29 1.5300293
47.375 30 1.5400391
35.8125 -1.5 5.5400391
36.25 -0.5 5.4799805
36.6875 0.5 5.2800293
37.125 2 5.1899414
37.5625 3 5.0400391
39.25 7 4.5200195
40.125 9 4.1999512
40.5625 10.5 4.1398926
41.4375 12.5 3.8601074
41.875 13.5 3.8300781
44.875 21 2.9199219
45.25 22 2.7800293
45.6875 23.5 2.5700684
36.8125 -2 5.5800781
37.25 -1 5.4799805
38.125 1.5 5.3100586
38.5625 2.5 5.1799316
40.25 7 4.6101074
40.6875 8 4.4399414
41.125 9 4.3100586
41.5625 10 4.2299805
42 11 4.0700684
42.375 12 3.9799805
43.25 14.5 3.6999512
45.4375 20 3.0700684
45.8125 21 2.9099121
46.25 22 2.8200684
39.8125 2 5.3000488
40.25 3.5 5.1499023
40.6875 4.5 4.9799805
41.125 5.5 4.8999023
41.5625 6.5 4.6799316
42 7.5 4.5500488
42.4375 8.5 4.3999023
42.875 10 4.3100586
43.25 11 4.1599121
43.6875 12 4.0700684
44.125 13 3.8798828
45.875 17.5 3.4099121
46.3125 18.5 3.2299805
46.75 19.5 3.0900879
47.125 20.5 2.9399414
47.5625 21.5 2.8798828
41.5 3.5 5.2299805
42.8125 6.5 4.7900391
43.25 7.5 4.6298828
43.6875 8.5 4.5400391
44.125 10 4.4299316
44.5 11 4.25
44.9375 12 4.1398926
45.375 13 3.9899902
46.25 15 3.8601074
46.6875 16 3.6699219
47.125 17.5 3.6398926
47.5625 18.5 3.2299805
42.0625 2 5.4499512
42.5 3.5 5.3400879
42.875 4.5 5.1899414
43.3125 5.5 5.1000977
43.75 6.5 4.8000488
44.1875 7.5 4.7099609
45.5 11 4.2800293
47.1875 15 3.8400879
47.625 16 3.6398926
41.8125 -1 5.8500977
43.0625 2 5.4599609
43.5 3 5.3601074
43.9375 4.5 5.1899414
43.9375 1 5.6101074
45.1875 4.5 5.1799316
47.375 9.5 4.4799805
47.75 11 4.2800293
43.875 -2 6.1799316
44.3125 -1 6.0200195
44.75 0 5.75
45.1875 1 5.6101074
47.75 8 4.8601074
45.4375 -1 5.9899902
46.625 -1 6.1201172
47.375 -2 6.3200684
0.1875 30.5 0.62011719
0.5625 31.5 0.59008789
0.3125 25 1.0600586
0.6875 26.5 1.0600586
1 27.5 0.93994141
0 18 1.8100586
0.375 19.5 1.6599121
2.1875 25 1.3300781
0 12.5 2.2199707
0.3125 13.5 2.1799316
2.4375 20 1.8701172
3.1875 22 1.7199707
3.5 23 1.6201172
3.875 24.5 1.5600586
4.9375 27.5 1.2099609
0 7.5 2.5500488
0.3125 8.5 2.5300293
0.6875 9.5 2.4499512
1.0625 11 2.3500977
1.375 12 2.3999023
3.875 19.5 2.0900879
4.25 20.5 1.9899902
5.3125 24 1.7700195
5.6875 25 1.6000977
6 26 1.4899902
6.375 27 1.3400879
6.75 28 1.1899414
1.875 8 2.8200684
2.25 9 2.7700195
2.5625 10 2.7199707
2.9375 11 2.6799316
3.3125 12.5 2.6298828
3.625 13.5 2.6101074
4.375 15.5 2.5600586
4.6875 17 2.4599609
5.0625 18 2.4099121
5.4375 19 2.3601074
7.1875 24.5 1.8100586
7.5625 25.5 1.6599121
7.9375 26.5 1.4799805
8.25 27.5 1.3400879
8.625 28.5 1.2399902
2.875 5.5 3.2900391
3.25 6.5 3.1999512
4.3125 9.5 3.0200195
4.6875 11 2.9799805
5 12 2.8999023
5.75 14 2.9099121
9.3125 25 1.8300781
9.625 26 1.7099609
10 27 1.5500488
3 0.5 3.8100586
3.375 1.5 3.8999023
5.5 8 3.2800293
5.875 9 3.1999512
6.1875 10.5 3.1799316
8 16 2.9099121
8.3125 17 2.8300781
8.6875 18 2.6899414
10.125 22 2.1999512
10.5 23.5 2.0900879
10.8125 24.5 2
11.1875 25.5 1.8999023
11.5 26.5 1.7199707
12.625 30 1.3999023
12.9375 31 1.1999512
3.875 -1 4.1699219
4.25 0 4.1699219
4.5625 1 4.3000488
4.9375 2 3.8999023
5.3125 3.5 3.7399902
7.0625 9 3.4199219
8.8125 14 3.1000977
9.1875 15 3.0500488
9.5625 16.5 2.9899902
9.875 17.5 2.8400879
10.25 18.5 2.7399902
10.9375 20.5 2.5900879
11.6875 23 2.2900391
12 24 2.0900879
13.8125 29 1.4799805
14.125 30.5 1.3200684
14.5 31.5 1.2099609
5.5625 -0.5 4.3100586
5.9375 0.5 4.2199707
6.625 2.5 3.9599609
7 4 3.8601074
7.375 5 3.7800293
7.6875 6 3.7099609
8.0625 7 3.7099609
8.4375 8 3.6499023
8.75 9 3.6201172
9.125 10 3.5200195
9.5 11.5 3.4199219
9.8125 12.5 3.3300781
10.5625 14.5 3.2099609
10.875 15.5 3.1499023
11.25 17 2.9499512
11.625 18 3
12.6875 21 2.5900879
13 22 2.4199219
13.375 23 2.2900391
7.1875 -1 4.3999023
8.25 2 4.2199707
9.3125 5 4.1398926
10.6875 9.5 3.7800293
12.125 14 3.3400879
12.5 15 3.3701172
12.8125 16 3.1799316
13.1875 17 2.9499512
13.5625 18 2.9199219
14.9375 22.5 2.5700684
15.3125 23.5 2.3300781
16.375 27 1.9599609
17.8125 31 1.3601074
8.5 -2 4.5300293
8.875 -0.5 4.4499512
9.25 0.5 4.3300781
9.5625 1.5 4.3999023
9.9375 2.5 4.2700195
10.3125 3.5 4.1499023
10.625 5 4.0900879
12.4375 10 3.7800293
12.75 11 3.6999512
14.1875 15.5 3.1899414
15.5625 20 2.8701172
15.9375 21 2.6899414
16.3125 22 2.5100098
16.6875 23 2.4199219
17 24 2.2700195
17.375 25 2.2099609
17.75 26.5 2.0100098
18.0625 27.5 1.8500977
18.75 29.5 1.5200195
19.125 30.5 1.3500977
11.25 3 4.3200684
11.625 4 4.1699219
12 5 4.1398926
12.3125 6.5 4.0700684
13.375 9.5 3.8500977
13.75 10.5 3.8701172
15.5 16 3.25
16.5625 19 2.8798828
16.9375 20.5 2.75
17.25 21.5 2.6000977
17.625 22.5 2.5100098
18.3125 24.5 2.2299805
18.6875 26 2.1000977
19 27 1.9299316
12.75 3.5 4.2900391
14.875 10 4.0700684
16.25 14 3.3898926
18 19.5 2.8701172
18.375 20.5 2.7299805
20.125 26 2.0300293
20.5 27 1.9299316
21.5625 30.5 1.4699707
21.9375 31.5 1.2700195
13.375 0.5 4.7099609
13.75 1.5 4.5300293
14.4375 3.5 4.4899902
14.75 5 4.3300781
16.5 10 3.8300781
16.875 11 3.7700195
17.25 12.5 3.6000977
17.5625 13.5 3.4599609
21.125 24 2.3701172
23.25 30.5 1.4099121
18 11 3.7199707
18.375 12 3.6398926
18.6875 13 3.5500488
21.875 22.5 2.4299316
24.6875 31 1.3000488
18.5 9 3.8200684
19.5625 12 3.7199707
19.875 13.5 3.4699707
20.25 14.5 3.3701172
20.625 15.5 3.3000488
22.375 21 2.6899414
22.6875 22 2.5
25.1875 29.5 1.4699707
25.5 30.5 1.4299316
16.375 -1.5 5.0400391
16.6875 -0.5 4.9199219
17.4375 2 4.7900391
17.75 3 4.6101074
18.8125 6 4.2800293
20.9375 12.5 3.5600586
21.25 13.5 3.4299316
21.625 14.5 3.3798828
22 16 3.25
22.3125 17 3.1599121
23 19 2.9499512
23.375 20 2.8100586
23.75 21 2.6699219
24.0625 22 2.4399414
26.5625 30 1.5900879
26.875 31 1.4699707
19 2 4.8200684
19.375 3 4.6398926
20.0625 5.5 4.4099121
20.4375 6.5 4.25
21.125 8.5 3.9899902
21.5 9.5 3.8999023
21.8125 11 3.7600098
22.1875 12 3.6599121
22.5 13 3.5600586
23.9375 17 3.1799316
24.25 18.5 3.1000977
24.625 19.5 2.8898926
25.6875 22.5 2.3000488
26.0625 23.5 2.1599121
20.375 3 4.6699219
20.75 4 4.5600586
21.0625 5 4.4299316
21.4375 6 4.3300781
21.75 7.5 4.4699707
22.125 8.5 4.0500488
22.5 9.5 3.8999023
22.8125 10.5 3.7800293
24.9375 17 3.2099609
25.25 18 2.9899902
25.625 19 2.9099121
26.3125 21 2.5900879
28.0625 26.5 1.8400879
28.4375 28 1.6499023
21.0625 2.5 4.6699219
21.375 3.5 4.6000977
21.75 5 4.4799805
22.125 6 4.3798828
22.4375 7 4.4599609
23.5 10 3.8898926
24.1875 12 3.7299805
25.25 15.5 3.3100586
25.625 16.5 3.2399902
25.9375 17.5 3.0400391
26.3125 19 2.9799805
28.75 26 1.9399414
29.125 27.5 1.7299805
29.4375 28.5 1.5400391
21.9375 2 4.8100586
22.25 3 4.75
22.625 4 4.6201172
22.9375 5 4.4599609
23.3125 6 4.3798828
23.6875 7.5 4.2199707
24 8.5 4.0800781
24.375 9.5 4.0100098
24.6875 10.5 3.8500977
25.0625 11.5 3.7600098
25.4375 12.5 3.7199707
25.75 14 3.4599609
28.5625 22.5 2.3000488
30.3125 28 1.6298828
30.6875 29 1.5
23.8125 3.5 4.7299805
24.1875 4.5 4.5500488
27.3125 14.5 3.5
29.4375 21 2.6000977
29.75 22 2.3798828
30.125 23 2.2199707
30.4375 24 2.1499023
30.8125 25 2.0100098
31.1875 26 1.8400879
31.5 27 1.6999512
32.1875 29.5 1.5600586
23.5 -1 5.2800293
27 9.5 4.1000977
27.6875 12 3.7399902
28 13 3.6298828
28.375 14 3.4199219
28.75 15 3.2700195
29.75 18 2.9499512
30.125 19.5 2.6599121
30.5 20.5 2.5500488
32.25 26 1.8200684
33.625 30 1.4099121
24.1875 -1.5 5.3200684
25.5625 3 4.7600098
26.625 6 4.3500977
26.9375 7 4.2700195
28.3125 11.5 3.8100586
29.0625 13.5 3.5500488
29.375 14.5 3.3300781
31.8125 22 2.2399902
32.875 25.5 1.8898926
33.25 26.5 1.7600098
34.25 30 1.3898926
25.9375 1.5 4.9299316
26.3125 2.5 4.8798828
26.625 3.5 4.6999512
27.375 5.5 4.4499512
27.6875 7 4.3000488
29.8125 13 3.4899902
30.125 14 3.3798828
30.5 15.5 3.3601074
31.1875 17.5 2.9799805
31.5 18.5 2.8000488
32.25 20.5 2.3701172
32.5625 22 2.3300781
33.25 24 2.0800781
33.625 25 1.8798828
34.6875 28 1.5900879
35 29.5 1.2900391
27.0625 1 5.0900879
29.8125 9.5 3.9099121
30.1875 10.5 3.75
31.5625 15 3.3500977
31.9375 16 3.1298828
32.25 17 2.9599609
32.625 18 2.8300781
33.6875 21.5 2.3898926
34.375 23.5 2.1101074
34.6875 24.5 1.9299316
36.125 29 1.4199219
28.0625 0.5 5.2099609
29.4375 5 4.5400391
31.1875 10 3.8701172
31.5 11.5 3.6899414
34.3125 20 2.6999512
34.625 21 2.5700684
35 22 2.2800293
35.375 23 2.1398926
35.6875 24 2.0400391
36.0625 25.5 1.9599609
36.75 27.5 1.7399902
37.0625 28.5 1.5400391
37.4375 29.5 1.3798828
37.8125 30.5 1.1499023
30.5 5.5 4.5200195
31.5625 9 4
31.875 10 3.8898926
32.25 11 3.8300781
33.25 14 3.3400879
33.625 15 3.2299805
34 16.5 3.1000977
35.375 20.5 2.5200195
35.75 21.5 2.3400879
36.0625 23 2.1999512
36.4375 24 2.0900879
36.75 25 2.0200195
37.125 26 1.9899902
37.4375 27 1.8300781
37.8125 28 1.6499023
38.125 29 1.4399414
29.9375 1 5.1398926
32.375 8 4.0800781
32.6875 9.5 4
33.4375 11.5 3.7900391
33.75 12.5 3.6000977
34.125 13.5 3.5200195
34.4375 15 3.3000488
34.8125 16 3.3300781
35.125 17 3.1298828
36.1875 20 2.6298828
37.25 23.5 2.2700195
37.5625 24.5 2.1398926
37.9375 25.5 2.0800781
38.25 26.5 1.9899902
38.625 27.5 1.8200684
38.9375 29 1.6298828
30.25 -2 5.75
33.75 9 4.0200195
34.75 12 3.7399902
35.125 13.5 3.5500488
35.5 14.5 3.4299316
35.8125 15.5 3.4699707
37.875 22 2.5400391
38.25 23 2.4599609
38.625 24 2.3500977
38.9375 25 2.2800293
39.3125 26 2.1499023
40 28.5 1.7700195
34.6875 9 4.0100098
35.375 11 3.8601074
35.75 12 3.75
36.0625 13 3.5700684
36.4375 14 3.4899902
36.75 15 3.3500977
39.1875 23 2.5300293
39.5 24 2.4899902
40.9375 28 1.9399414
41.25 29 1.5700684
32.9375 1 5.1000977
34 4 4.7199707
34.3125 5 4.5800781
34.6875 6.5 4.4599609
35 7.5 4.3500977
35.375 8.5 4.1799316
37.125 14 3.5700684
37.8125 16 3.3100586
39.5 21.5 2.7800293
39.875 22.5 2.6799316
40.25 23.5 2.6000977
41.9375 29 1.6201172
42.3125 30 1.4199219
42.6875 31 1.1000977
34.5 2.5 4.9099121
34.8125 3.5 4.7900391
38.625 15.5 3.3500977
39 16.5 3.2399902
39.6875 19 3.0600586
41.0625 23 2.6699219
42.8125 28.5 1.6999512
34.5625 -1 5.3898926
34.9375 0 5.3000488
35.625 2 5.0900879
39.4375 14 3.5700684
44.25 29 1.5900879
35.4375 -1 5.5
35.75 0 5.3898926
36.5 2 5.1298828
36.8125 3 5.0300293
37.1875 4 4.8601074
37.5 5 4.7199707
38.5625 8.5 4.2900391
39.25 10.5 3.9399414
40.25 14 3.8200684
40.625 15 3.6000977
43.75 24.5 2.4599609
45.5 30 1.3300781
45.8125 31 1.1101074
36.0625 -1.5 5.6101074
36.4375 -0.5 5.4699707
36.75 0.5 5.3500977
37.125 2 5.25
37.4375 3 5.0800781
37.8125 4 4.8798828
38.8125 7 4.4799805
39.5 9 4.2399902
39.875 10.5 4.0700684
40.5625 12.5 3.9099121
40.875 13.5 3.7800293
41.25 14.5 3.6699219
41.625 15.5 3.5200195
42.3125 18 3.3701172
44 23 2.6999512
44.375 24.5 2.4599609
44.6875 25.5 2.1000977
45.0625 26.5 1.9499512
46.4375 31 1.1899414
37 -2 5.6398926
37.375 -1 5.5100098
37.6875 0 5.3601074
38.375 2.5 5.1899414
39.8125 6.5 4.6201172
40.125 8 4.4799805
40.5 9 4.3100586
40.8125 10 4.1999512
41.1875 11 4.0400391
41.5 12 3.9499512
42.1875 14 3.7700195
43.25 17.5 3.4099121
45 23 2.8400879
47.375 30.5 1.3500977
47.75 31.5 1.0400391
40 3 5.1799316
40.3125 4 4.9699707
40.6875 5 4.8898926
41 6.5 4.7099609
41.375 7.5 4.5200195
41.75 8.5 4.4199219
42.0625 9.5 4.3200684
42.4375 10.5 4.2600098
42.75 12 4.0500488
43.8125 15 3.75
45.5 20.5 3.0100098
45.875 21.5 2.8500977
46.1875 22.5 2.7299805
40.9375 3 5.25
41.25 4 5.0800781
42 6 4.8798828
42.3125 7.5 4.6298828
42.6875 8.5 4.5200195
43 9.5 4.3601074
43.375 10.5 4.2299805
44.0625 12.5 4.0100098
44.375 14 3.8000488
45.4375 17 3.5600586
45.75 18 3.3300781
46.125 19 3.1799316
46.4375 20 3
46.8125 21.5 2.8898926
47.5 23.5 2.5700684
40.8125 1 5.6699219
41.5 3 5.3300781
41.875 4 5.1298828
42.5625 6 4.8798828
42.9375 7 4.6799316
43.25 8.5 4.6000977
43.625 9.5 4.4299316
43.9375 10.5 4.2700195
44.3125 11.5 4.1499023
44.625 12.5 4.0400391
45 13.5 3.8701172
46 17 3.5300293
46.375 18 3.3898926
46.6875 19 3.1499023
47.0625 20 3
47.375 21 2.8798828
41.375 -0.5 5.7900391
41.75 0.5 5.6699219
42.0625 1.5 5.5
42.4375 2.5 5.4599609
42.75 3.5 5.3200684
43.125 5 5.2099609
43.4375 6 5.0700684
43.8125 7 4.8300781
44.125 8 4.6298828
44.5 9 4.5800781
44.8125 10 4.4799805
45.1875 11 4.2399902
45.5 12 4.0900879
45.875 13.5 4
46.9375 16.5 3.7900391
47.25 17.5 3.5300293
47.625 18.5 3.2399902
43.6875 2 5.5200195
44 3 5.4399414
44.375 4 5.2199707
44.4375 1 5.6398926
44.8125 2 5.5600586
45.125 3 5.4699707
47.25 9.5 4.5
47.5625 10.5 4.3200684
44.5625 -1.5 6.0800781
44.9375 -0.5 5.9299316
45.25 1 5.7099609
45.625 2 5.5600586
47.6875 8 4.6999512
45.8125 -0.5 6.0200195
47.0625 -1 6.1298828
0.5 31 0.62988281
0.5625 27 1
1 28 0.87011719
2.1875 31.5 0.70996094
2.625 28 0.91992188
3 29 0.92993164
0.8125 19 1.7800293
1.5625 21.5 1.6201172
2.375 23.5 1.5700684
3.1875 26 1.3200684
4 28 1.1499023
4.375 29 0.97998047
0.25 15 2.1899414
3.0625 22.5 1.6899414
3.4375 23.5 1.6201172
3.875 24.5 1.6000977
5.0625 28 1.1499023
5.4375 29 1.0900879
0 10 2.3000488
0.4375 11 2.2900391
0.8125 12.5 2.3300781
1.1875 13.5 2.3200684
1.5625 14.5 2.3701172
4 21 1.9499512
4.375 22 1.9799805
5.5625 25.5 1.5600586
5.9375 26.5 1.5500488
6.375 27.5 1.2900391
6.75 28.5 1.1899414
7.1875 30 1.1101074
1.6875 10 2.5700684
2.0625 11 2.5800781
2.5 12 2.5900879
2.875 13 2.5700684
3.625 15 2.5800781
4.4375 17.5 2.3798828
4.8125 18.5 2.3100586
5.25 19.5 2.2299805
7.625 26 1.5600586
8.0625 27 1.3898926
8.4375 28.5 1.2700195
8.8125 29.5 1.25
9.25 30.5 1.1799316
0 1 3.4199219
0.75 3 3.3500977
2.375 7.5 2.9799805
2.75 8.5 2.8999023
3.125 10 2.8500977
3.5625 11 2.7800293
3.9375 12 2.7299805
4.3125 13 2.7299805
5.125 15 2.6999512
5.5 16 2.6499023
9.125 26 1.6298828
9.5 27 1.4799805
9.875 28 1.4099121
0.3125 -1 3.7299805
1.9375 3 3.3000488
3.5 7.5 3.1799316
4.6875 10.5 3.0100098
5.0625 12 2.9199219
5.4375 13 2.8798828
6.625 16 2.8601074
7.8125 19.5 2.3999023
10.25 26 1.75
10.625 27 1.5700684
11 28 1.4499512
3.125 3 3.5600586
3.5 4 3.4699707
3.9375 5 3.4699707
5.875 10.5 3.1599121
8.25 17 2.8000488
8.625 18 2.6999512
9.0625 19 2.6298828
9.8125 21 2.3000488
10.625 23.5 2.1599121
11.0625 24.5 2
11.4375 25.5 1.8798828
11.8125 26.5 1.7700195
3.9375 0.5 4.0600586
4.3125 1.5 4
4.6875 2.5 3.9299316
5.125 3.5 3.7399902
5.5 4.5 3.7600098
7.5 10 3.3500977
7.875 11 3.3400879
9.0625 14.5 3.0300293
9.4375 15.5 3.0800781
10.25 17.5 2.8999023
10.625 19 2.6999512
11.0625 20 2.5900879
11.8125 22 2.3999023
12.25 23 2.2299805
12.625 24 2.1201172
13 25.5 2.0400391
5.5 0.5 4.2399902
5.875 1.5 4.1101074
6.6875 3.5 3.7800293
7.0625 4.5 3.7900391
7.4375 5.5 3.7700195
7.875 7 3.7399902
8.25 8 3.6398926
8.625 9 3.6398926
9 10 3.5500488
9.4375 11 3.4899902
9.8125 12 3.4199219
10.625 14.5 3.25
11.8125 17.5 2.9899902
12.1875 18.5 2.9299316
14.1875 24 2.25
14.625 25 2.1201172
6.625 0 4.2199707
7.0625 1 4.1999512
7.8125 3.5 3.9599609
8.1875 4.5 4.0400391
9 6.5 3.8300781
10.1875 10 3.6699219
11 12 3.5400391
12.5625 16.5 3.0800781
12.9375 17.5 2.9899902
14.125 20.5 2.7399902
15.75 25 2.2099609
7.5 -1.5 4.4399414
7.875 -0.5 4.3100586
8.25 0.5 4.2600098
10.25 6 3.9699707
12.5625 12.5 3.5200195
13 13.5 3.4499512
13.375 15 3.3300781
13.75 16 3.2800293
14.1875 17 3.0900879
14.5625 18 3.0300293
16.1875 22.5 2.5300293
16.5625 23.5 2.3898926
17 24.5 2.2600098
17.375 25.5 2.2700195
17.75 27 2
18.1875 28 1.8400879
18.5625 29 1.7099609
9.375 -1 4.4399414
11.75 5.5 4.1298828
12.125 7 4.0400391
12.5625 8 3.9499512
16.125 17.5 3.0900879
17.3125 21 2.7199707
17.6875 22 2.5800781
18.125 23 2.4699707
19.6875 27.5 2.0100098
12.8125 4.5 4.2600098
13.1875 5.5 4.1799316
15.5625 12 3.7800293
16.75 15 3.2600098
17.125 16 3.1799316
19.125 21.5 2.6899414
21.125 27 2
22.375 30.5 1.4899902
13.5 3 4.3798828
13.875 4 4.3701172
14.3125 5 4.3400879
17.0625 12.5 3.6499023
17.4375 14 3.4699707
17.875 15 3.3601074
18.25 16 3.2199707
21.4375 24.5 2.2900391
14.6875 2.5 4.5700684
15.875 5.5 4.2900391
18.6875 13 3.5800781
19.0625 14.5 3.3500977
19.4375 15.5 3.3200684
22.25 23 2.4399414
22.625 24 2.3100586
18.9375 9.5 3.8601074
19.375 10.5 3.7199707
20.9375 15 3.4199219
21.3125 16 3.2700195
21.75 17 3.1398926
22.125 18 3.0400391
23.3125 21.5 2.6699219
23.75 22.5 2.4499512
24.125 23.5 2.2700195
26.9375 31 1.4699707
16.375 -2 5.1799316
16.8125 -1 4.9799805
17.5625 1.5 4.8300781
18.375 3.5 4.5800781
19.1875 6 4.25
19.5625 7 4.2299805
22.3125 14.5 3.4199219
24.3125 20 2.8500977
24.6875 21 2.7399902
25.5 23 2.3400879
25.9375 24 2.1398926
26.3125 25.5 2.0700684
27.9375 30 1.5600586
19.875 4 4.5800781
20.6875 6.5 4.25
21.0625 7.5 4.1699219
21.5 8.5 4.0800781
21.875 9.5 3.8500977
22.25 10.5 3.8100586
22.6875 12 3.6799316
23.4375 14 3.6101074
24.6875 17 3.1201172
25.0625 18.5 3.0300293
25.4375 19.5 2.8999023
25.875 20.5 2.6899414
27.0625 24 2.1699219
28.25 27 1.8500977
28.6875 28 1.5500488
29.0625 29 1.6000977
21.5 4.5 4.5400391
21.9375 6 4.3898926
22.3125 7 4.4199219
23.9375 11 3.6899414
24.6875 13.5 3.5900879
25.125 14.5 3.5100098
26.6875 19 2.9699707
30.3125 28.5 1.5500488
30.6875 30 1.4899902
22.5625 3 4.7199707
22.9375 4 4.6899414
23.3125 5 4.5100098
23.75 6 4.4199219
24.125 7.5 4.3000488
24.5 8.5 4.1298828
24.9375 9.5 4.0400391
26.125 13 3.6201172
26.5 14 3.5500488
29.3125 21.5 2.4399414
29.6875 22.5 2.2299805
30.125 23.5 2.1499023
30.5 25 2.0700684
31.3125 27 1.7900391
31.6875 28 1.6398926
32.5 30.5 1.3898926
22.25 -1.5 5.2600098
23.4375 1.5 4.9099121
25.0625 6 4.3999023
27.8125 13.5 3.5200195
28.25 14.5 3.3400879
28.625 16 3.2399902
30.25 20 2.5800781
30.625 21 2.4299316
32.625 26.5 1.7800293
33 28 1.6899414
34.25 31 1.3400879
23.75 -1 5.3701172
24.1875 0 5.1499023
27.3125 9 4.1599121
28.5 12 3.6398926
32.5625 23 2.1298828
33.75 26.5 1.7800293
34.125 27.5 1.6899414
34.9375 29.5 1.2900391
25 -1.5 5.3400879
27 4 4.6799316
27.375 5 4.5900879
28.1875 7 4.3400879
31.375 16 3.1298828
31.75 17 3.0300293
32.1875 18 2.8500977
32.5625 19 2.8100586
33.75 22.5 2.3200684
34.5625 24.5 1.9499512
36.5625 30 1.3798828
31.25 11 3.8100586
31.6875 12 3.6699219
33.25 16 3.1398926
35.25 22 2.3300781
35.6875 23 2.1999512
36.0625 24 2.1298828
36.5 25 2
36.875 26 1.9099121
37.25 27 1.8300781
37.6875 28.5 1.6398926
38.0625 29.5 1.4299316
38.5 30.5 1.25
31.0625 6 4.4699707
32.25 9.5 3.9799805
32.6875 10.5 3.9299316
33.4375 12.5 3.5900879
33.875 13.5 3.4899902
34.25 15 3.3400879
34.625 16 3.3200684
35.4375 18 2.9099121
36.625 21.5 2.6000977
37.875 24.5 2.2199707
38.25 26 2.1201172
38.625 27 2.0400391
39.0625 28 1.8400879
39.4375 29 1.5800781
29.75 -1 5.4299316
30.5625 1.5 5.1201172
30.9375 2.5 5.0200195
33.75 10 3.9899902
34.9375 13.5 3.5800781
35.3125 14.5 3.4099121
35.6875 15.5 3.4499512
38.5 23 2.4299316
38.875 24 2.3701172
39.3125 25.5 2.3200684
39.6875 26.5 2.1799316
40.125 27.5 1.9699707
40.9375 30 1.4899902
30.875 -1.5 5.5900879
31.625 1 5.1999512
36 13 3.6799316
36.4375 14 3.5600586
36.8125 15 3.3999023
37.1875 16 3.3400879
40 23.5 2.6000977
40.375 25 2.4699707
40.75 26 2.4399414
42 29 1.5400391
42.4375 30.5 1.4199219
42.875 31.5 1.0500488
34.6875 4.5 4.6499023
35.0625 5.5 4.5600586
39.0625 16.5 3.2600098
40.25 20 3.0600586
41.0625 22 2.8300781
34.875 1 5.25
38.0625 9.5 4.0600586
40 15 3.6799316
40.4375 16 3.5700684
44 26 2.1499023
46.0625 31.5 1.0500488
35.5625 -1 5.4699707
35.9375 0.5 5.3798828
36.375 1.5 5.1599121
36.75 2.5 5.1298828
37.125 3.5 4.9499512
37.5 4.5 4.8798828
37.9375 6 4.6398926
39.5 10 4.1899414
39.9375 11 3.9899902
40.6875 13.5 3.8500977
41.125 14.5 3.6999512
41.5 15.5 3.6101074
41.875 16.5 3.5700684
42.3125 18 3.3500977
42.6875 19 3.3701172
43.0625 20 3.0900879
45.125 25.5 2.1499023
45.5 26.5 1.8999023
45.9375 27.5 1.8000488
47.125 31 1.1298828
36.8125 -1.5 5.5700684
37.1875 -0.5 5.4499512
37.625 0.5 5.3500977
38 2 5.2800293
38.375 3 5.1699219
38.8125 4 4.9799805
40 7 4.5500488
40.375 8.5 4.4699707
40.75 9.5 4.2600098
41.1875 10.5 4.1599121
41.5625 11.5 4.0200195
42 12.5 3.9199219
42.375 14 3.8500977
45.5625 22.5 2.7299805
45.9375 23.5 2.5400391
46.375 25 2.25
40.625 4.5 4.9599609
41 5.5 4.8500977
41.4375 6.5 4.7099609
41.8125 8 4.5400391
42.25 9 4.3999023
42.625 10 4.3300781
43 11 4.1799316
43.4375 12 4.0300293
44.625 15.5 3.7399902
45 16.5 3.6298828
46.1875 20 3.0700684
46.625 21 2.9599609
47 22 2.8500977
39.8125 -1 5.8701172
41.8125 4 5.1000977
42.625 6.5 4.7800293
43 7.5 4.6699219
43.375 8.5 4.5700684
43.8125 9.5 4.4399414
44.1875 11 4.2900391
44.5625 12 4.1699219
45 13 4
47 18.5 3.2800293
47.375 19.5 3.1999512
40.8125 -1.5 5.8999023
41.25 -0.5 5.8300781
42.4375 3 5.3701172
42.8125 4 5.3100586
43.25 5 5.1298828
43.625 6 4.9699707
44.4375 8 4.7099609
44.8125 9 4.5200195
46 12.5 4.1699219
47.625 17 3.5900879
44.125 3 5.4399414
44.5 4 5.2800293
44.875 5.5 5.1599121
44.8125 0.5 5.75
45.25 1.5 5.6201172
45.625 2.5 5.4399414
46 4 5.3601074
45.3125 -2 6.3798828
1.25 31.5 0.62011719
1.5 27.5 0.95996094
1.875 28.5 0.85009766
0.1875 20.5 1.7099609
0.625 21.5 1.5600586
3.125 28 0.93994141
3.5 29 0.9699707
2.6875 23 1.6699219
3.125 24 1.6101074
3.5 25 1.6699219
4.75 28.5 1.0100098
5.1875 29.5 1.0700684
0 11 2.2800293
0.4375 12 2.3100586
0.8125 13.5 2.3400879
1.1875 14.5 2.3000488
4.0625 22 2.0100098
4.5 23 1.8898926
5.75 26.5 1.5300293
6.125 27.5 1.3400879
6.5625 28.5 1.2099609
7 29.5 1.1499023
7.375 30.5 1.0500488
1.25 10.5 2.4899902
1.6875 11.5 2.5300293
2.0625 12.5 2.5
4.125 18 2.3701172
4.5 19 2.3300781
4.9375 20 2.2099609
5.375 21 2.0100098
7.4375 26.5 1.4699707
7.875 27.5 1.3200684
8.25 29 1.2800293
8.6875 30 1.2199707
9.0625 31 1.1899414
2.375 9.5 2.75
2.75 10.5 2.7399902
3.1875 11.5 2.6899414
3.5625 12.5 2.6499023
4 14 2.6799316
4.375 15 2.6298828
4.8125 16 2.6499023
5.1875 17 2.6000977
5.625 18 2.3898926
8.9375 27 1.5
9.375 28 1.3999023
9.75 29 1.3100586
0.3125 0 3.7600098
0.6875 1 3.7099609
1.9375 4 3.3200684
3.5625 8.5 3.1699219
4.8125 11.5 2.9099121
5.1875 13 2.8500977
6.4375 16 2.8701172
6.8125 17 2.7399902
10.1875 25.5 1.8100586
10.5625 27 1.6398926
11 28 1.5200195
11.4375 29 1.4299316
1.625 -1 3.8601074
3.25 3 3.5600586
3.625 4 3.5300293
8.5625 17 2.8000488
8.9375 18 2.6999512
9.375 19.5 2.5900879
10.625 22.5 2.2900391
11.0625 23.5 2.1101074
11.4375 25 2.0300293
11.875 26 1.9499512
12.25 27 1.8400879
3.875 1.5 4.0100098
4.25 2.5 3.9799805
4.6875 3.5 3.75
5.125 4.5 3.7099609
6.75 9 3.4199219
7.5625 11 3.3898926
9.1875 15.5 3.1298828
10.4375 18.5 2.8000488
10.8125 19.5 2.6699219
12.0625 23 2.3200684
12.5 24 2.2399902
12.9375 25 2.0900879
13.3125 26 1.9899902
5.5 2.5 3.9199219
5.9375 3.5 3.8500977
6.3125 4.5 3.7900391
7.9375 9 3.8100586
8.375 10 3.5500488
8.8125 11 3.4399414
9.1875 12 3.3601074
9.625 13 3.2900391
10 14 3.2099609
10.4375 15.5 3.1799316
10.8125 16.5 3.0700684
12.9375 22 2.4299316
13.3125 23 2.3300781
14.1875 25 2.0900879
6.625 1 4.1799316
7.8125 4 3.9499512
8.625 6.5 3.9199219
9.0625 7.5 3.8000488
9.875 9.5 3.6000977
10.6875 11.5 3.5100098
12.75 17 2.9799805
13.1875 18 2.9799805
14 20.5 2.7299805
16.0625 26 2.1000977
17.375 29 1.6499023
17.75 30 1.5600586
18.1875 31 1.3701172
7.5 -1.5 4.4699707
7.9375 -0.5 4.3300781
8.3125 0.5 4.2900391
8.75 1.5 4.2900391
10.375 6 3.9699707
10.8125 7 3.9099121
12.8125 12.5 3.6000977
13.6875 14.5 3.3701172
14.9375 18 3.0400391
16.5625 22 2.5100098
17 23 2.4399414
17.4375 24.5 2.3200684
17.8125 25.5 2.1699219
18.25 26.5 1.9699707
18.6875 27.5 1.8898926
19.125 28.5 1.8200684
11.9375 6 4.1201172
12.3125 7 4.0600586
12.75 8 3.9899902
13.5625 10 3.8798828
14.375 12 3.6599121
16.5 17.5 3.1000977
16.875 19 2.9799805
17.3125 20 2.7700195
18.125 22 2.6201172
18.5625 23 2.4799805
20.6875 28.5 1.7399902
21.5 31 1.4199219
12.5625 4.5 4.1799316
13 5.5 4.2399902
13.8125 8 4.0400391
15.4375 12 3.7199707
16.6875 15.5 3.2800293
17.125 16.5 3.1999512
19.1875 22 2.7700195
22.5625 30.5 1.4799805
13.3125 3 4.25
13.75 4 4.3300781
14.125 5.5 4.2900391
17 13 3.6599121
17.4375 14 3.4399414
17.875 15 3.3100586
18.25 16 3.2800293
21.625 25 2.2099609
22.0625 26 2.1398926
19 13 3.4699707
19.875 15.5 3.2900391
20.25 16.5 3.25
22.375 22 2.5600586
22.75 23 2.4199219
23.1875 24 2.3500977
25.75 30.5 1.4199219
19.25 9.5 3.8898926
19.625 10.5 3.7600098
21.3125 15 3.2900391
21.6875 16 3.3300781
22.125 17 3.1999512
23.8125 21.5 2.6799316
24.25 22.5 2.4399414
24.6875 23.5 2.2399902
25.0625 24.5 2.1499023
27.625 31 1.4099121
16.125 -2 5.1699219
16.9375 0.5 4.9399414
17.75 2.5 4.7800293
18.5625 4.5 4.4699707
19.4375 7 4.2199707
22.3125 14.5 3.3601074
22.75 15.5 3.3701172
24.375 20 2.9199219
24.8125 21 2.7800293
26.125 24 2.1599121
26.5 25 2.0600586
28.25 29.5 1.4699707
28.625 30.5 1.4899902
20.9375 7 4.2199707
21.375 8 4.1298828
22.1875 10.5 3.8701172
22.625 11.5 3.75
23 12.5 3.7199707
25.125 18 3.0600586
25.5625 19 2.9699707
25.9375 20 2.8300781
28.9375 28 1.6398926
29.375 29 1.5500488
29.75 30 1.4699707
21.5 4.5 4.5600586
21.9375 5.5 4.4799805
22.3125 6.5 4.4399414
22.75 7.5 4.4299316
23.1875 8.5 4.0800781
24.8125 13 3.7199707
25.25 14 3.5
27.3125 19.5 2.9199219
31.125 29 1.6201172
22.6875 3.5 4.6499023
23.5 6 4.5100098
23.875 7 4.4099121
24.75 9 4.0900879
25.125 10 3.9699707
27.25 15.5 3.3000488
