# .PCD v0.7 - Point Cloud Data file format
VERSION 0.7
FIELDS x y z
SIZE 4 4 4
TYPE F F F
COUNT 1 1 1
WIDTH 2392
HEIGHT 1
VIEWPOINT 0 0 0 1 0 0 0
POINTS 2392
DATA ascii
42.4375 23.5 17.320068
46 31 6.2800293
36.25 2.5 6.2099609
37.75 7 8.5700684
38.25 8 7.6699219
39.1875 10 5.4099121
41.125 15.5 6.7900391
41.3125 17 11.340088
42.4375 20 12.909912
42.625 21 16.76001
43.875 23.5 9.1599121
45.25 26.5 6.4699707
38.0625 5 13.379883
41.75 13.5 5.2800293
42.0625 14.5 7.5500488
42.75 16.5 9.3601074
43.1875 18 9.9399414
46 25.5 10
46.0625 25.5 9.2299805
46.875 27.5 9.2399902
47.3125 28.5 9.1599121
37.3125 -0.5 13.360107
37.5625 0.5 16.01001
38 2 16.340088
38.9375 4 13.129883
39.3125 5 13.379883
39.8125 6 11.77002
42.5 12.5 8.0100098
42.8125 13.5 8.75
44 17 10.040039
45.125 20 11.419922
46.5625 23 7.7600098
47 24.5 8.2700195
37.6875 -1.5 16.159912
38.375 1 18.689941
38.8125 2 18.709961
39.3125 3 15.72998
41 6 7.3500977
43.4375 12.5 7.6999512
43.75 13.5 9.2399902
44.1875 14.5 9.2900391
44.5625 15.5 9.2700195
45 17 9.0600586
47.5 23 8.3601074
39.125 -0.5 16.300049
41 3.5 11.52002
41.9375 6 9.1999512
45.4375 15.5 12.47998
46.6875 17.5 4.5400391
47.4375 20 6.6599121
40.6875 -1 12.48999
40.9375 0.5 15.290039
41.375 1.5 15.179932
42 2.5 10.189941
43.625 7 10.629883
44.0625 8 9.7399902
44.5625 9 8.8601074
45.0625 11 14.320068
41.3125 -1.5 17.040039
42.3125 0.5 13.840088
42.75 1.5 13
44.375 6 12.5
44.75 7 13.719971
46.4375 11 13.179932
42.25 -1.5 19.389893
42.8125 -0.5 15.199951
45.875 7 11.080078
44.625 0.5 13.929932
45.9375 3.5 11.629883
46.625 6 14.709961
47.25 7 10.98999
45.5625 -0.5 19.120117
46 0.5 19.639893
47.3125 3.5 17.389893
46.5625 -1.5 21.429932
47.3125 -0.5 14.290039
0.1875 31 11.070068
0.5 27 5.6499023
1.125 30 14.389893
1.625 31 12.320068
1.3125 25 7.8200684
2.25 27 3.8500977
2.375 29 16.159912
0.3125 19 9.1699219
0.8125 20 8.2800293
1.1875 21 10.820068
1.625 22 9.5200195
3.5 26.5 5.7199707
4.6875 30 10.939941
2.75 21 6.2600098
3.5 23.5 10.409912
6.5625 31.5 12.48999
1.875 16.5 14.48999
2.875 18 10.97998
3.75 20 9.3400879
5 24 13.97998
8.0625 31.5 13
0.1875 7.5 14.280029
0.5625 8.5 14.52002
1.1875 9 5.6999512
3.75 16 10.689941
3.75 16 9.3601074
4.1875 17 9.9099121
4.25 17 9.5400391
6.8125 24 12.429932
7.25 25 10.879883
9 29 11.889893
9.0625 29 10.570068
9.375 30.5 13.709961
1.375 7 16.02002
2.3125 8.5 10.310059
2.8125 9.5 9.6899414
3.125 11 14.780029
7.5625 22 12.540039
8.4375 24 12.929932
9 25 8.2700195
10.1875 28.5 14.540039
10.5 30 17.610107
11 31 15.469971
0.125 0.5 16.600098
1 2.5 13.47998
1.375 4 17.840088
1.875 5 16.149902
2.25 6 18.949951
3.25 8 12.949951
3.6875 9 13.649902
4.125 10 11.540039
6.375 15.5 10.23999
10 24 7.2800293
11.1875 27.5 11
11.5625 28.5 13.639893
12.0625 29.5 12.800049
1.625 1 17.560059
3.3125 5.5 20.550049
4.1875 7.5 20.51001
5.25 9 11.51001
7 13 10.929932
7.375 14.5 15.580078
12.1875 26.5 16.120117
13.0625 29 16.409912
13.5 30 14.639893
14.0625 31 10.939941
2.5 -1.5 15.610107
3 -1 12.52002
5.5625 6.5 19.23999
6.5625 7.5 10.110107
6.9375 9 13.5
7.5 9.5 6.6799316
9.625 15.5 11.26001
11.5 19.5 7.7199707
12.75 23 10.570068
13.875 27 17.699951
14.3125 28 16.659912
14.75 29 16.709961
15.3125 30 13.639893
4.5625 -0.5 12.780029
10.25 14 16.179932
10.6875 15 14.620117
11.1875 16 13.280029
11.6875 17 10.22998
13.75 22.5 15.699951
14.75 24.5 9.8200684
16.4375 29 12.120117
17.3125 31 12.870117
5.4375 -1 16.919922
5.9375 -0.5 11.949951
6.8125 2 14.5
11.625 14 15.840088
15.25 22.5 10.350098
11.4375 9.5 12.72998
14.875 18.5 17.639893
15.875 20.5 13.179932
18.6875 26.5 5.8400879
9.125 0 16.149902
13.5625 10.5 12.790039
14.4375 13 15.040039
16.25 17 12.649902
16.625 18 13.870117
17.0625 19.5 13.929932
17.5 20.5 14.370117
21.1875 29 8.9499512
11.125 1 15.26001
12.625 3.5 7.0300293
14.1875 9 16.070068
15.3125 10 5.8100586
17.25 16.5 17.350098
18.625 19.5 14.889893
19.0625 20.5 13.870117
19.9375 23 13.350098
21.25 26 14.830078
21.625 27.5 16.790039
22.625 29 12.419922
11.125 -2 16.969971
11.625 -1 13.929932
12.4375 1.5 16.929932
14.6875 6.5 13.709961
15.125 8 15.159912
18.5625 16.5 17.419922
19 18 17.580078
19.4375 19 17.189941
19.9375 20 15.01001
20.375 21 14.97998
20.875 22 13.439941
22.1875 25 12.919922
22.5 26.5 17.5
23 27.5 14.570068
23.4375 28.5 14.929932
24 29.5 11.320068
25 31.5 8.2299805
13.5 0 16.889893
15.3125 4 12.47998
16.5625 8 16.800049
17.875 11 15.870117
18.4375 12 11.909912
18.8125 13 12.810059
20.0625 16.5 15.090088
24.4375 27.5 16.719971
25 28 13
14.75 -1 16.959961
17.875 6.5 12.340088
19.25 9.5 11.169922
23.25 19 9.1999512
24.125 21.5 8.5400391
26.3125 27 8.8601074
27.3125 29 5.8300781
27.6875 30 8.9699707
17.625 2.5 14.5
18.625 4 10.47998
20.25 9 14.899902
20.75 10 12.02002
21.1875 11 12.27002
22.8125 16 18.790039
23.3125 16.5 16.189941
25.625 22 11.72998
27.5 26 8.3200684
19 2.5 14.810059
22.6875 10.5 7.8601074
23.125 12 8.1201172
23.5625 13 7.8898926
25.3125 17.5 9
25.3125 17 7.8701172
27 22 11.820068
28.8125 26 8.7900391
29.3125 27 7.0600586
29.875 28 4.5
18.75 -1.5 17.550049
19.625 0 14.860107
20.0625 1.5 16.709961
23.6875 10 10.590088
24.6875 11.5 7.2800293
25.125 12.5 5.4199219
26 15 7.8999023
27.625 19.5 11.100098
28.0625 21 11.860107
29.5 24 8.9199219
31.75 29 7.1201172
32.6875 31.5 5.9599609
20.5 -2 16.290039
20.9375 -1 15.52002
21.3125 0.5 17.52002
21.8125 1.5 16.48999
23.1875 4.5 12.600098
24.125 6 8.8200684
25.875 11 11.780029
27.3125 14 7.1599121
29 18.5 10.01001
29.5 19.5 6.9699707
30.75 22.5 8.4899902
31.625 25 10.280029
32.25 26 3.8999023
33.9375 30.5 6.9399414
22 -2 14.370117
23.6875 3 19.060059
25.5625 7 12.659912
28.75 14 7.4299316
29.6875 16.5 7.4399414
30.5625 18.5 6.9699707
34.0625 27 7.2299805
34.625 28 4.8100586
23.25 -1.5 14.679932
27.6875 9.5 13.360107
28.1875 10 10.850098
29.5625 13.5 8.7800293
34.0625 24 6.0400391
35.3125 27.5 8.5100098
36.25 29.5 7.1298828
24.8125 -1.5 14.560059
25.25 -0.5 14.600098
26.125 2 14.449951
26.5625 3 13.320068
27.4375 5 13.280029
27.875 6 13.889893
32 15.5 8.8601074
32.875 18 8.3400879
33.75 20 9.3601074
26.5 -1 17.199951
26.9375 0 18.179932
27.375 1 16.820068
27.8125 2 17.179932
28.6875 4.5 17.25
29.1875 5 15.080078
30.125 7 12.030029
30.625 8 11.090088
28.5 0 16.22998
28.9375 1 15.419922
29.8125 3 14.330078
30.25 4.5 14.840088
30.6875 5.5 16.360107
31.125 6.5 16.159912
31.6875 7.5 10.330078
32.0625 8.5 13.209961
32.5625 9.5 10.379883
33.5 11.5 7.8798828
34 12.5 7.3100586
34.4375 13.5 6.3701172
35.6875 17 9.6000977
36.125 18 9.0900879
36.5625 19 9.1398926
37.0625 20.5 8.0900879
37.375 21.5 10.72998
39.25 26 7.4299316
39.625 27 9.5200195
39.6875 27 7.3701172
30.625 2.5 14.540039
31.0625 3.5 15.540039
31.5 4.5 15.790039
31.9375 6 16.169922
32.375 7 16.060059
34.3125 10.5 7
37.875 19.5 7.2900391
40.3125 26 13.379883
40.6875 27.5 15.639893
40.6875 27.5 14.629883
41.375 28 8.0100098
31.625 1.5 18.51001
32.0625 2.5 17.449951
33 4.5 15.199951
33.375 6 16.429932
35.6875 11 11.550049
36.1875 12 9.4399414
36.6875 13 6.8999023
37.0625 14 9.8601074
37.5625 15 7.2399902
38.4375 17 7.5600586
38.5 17 7.1398926
39.3125 19.5 7.6799316
40.0625 22 12.959961
40.5625 23 11.439941
41.0625 24 9
41.3125 25 13.959961
41.875 26 11.159912
42.3125 27.5 11.409912
42.75 28.5 10.659912
32.125 -2 15.040039
32.5 -0.5 18.080078
35.25 5.5 13.149902
36.9375 10 14.48999
37.4375 11 11.959961
38.375 13 11.219971
38.875 14 8.4499512
40.125 17.5 12.030029
40.5 18.5 12.080078
41 19.5 10.659912
41.3125 21 14.620117
41.6875 22 17.530029
42.1875 23 15.76001
42.625 24.5 15.75
43.3125 25 8.2600098
44.9375 29.5 11.320068
45.4375 30.5 9.4499512
40.8125 15.5 6.9199219
41.125 17 11.26001
41.5625 18 11.77002
42.375 20 12.879883
42.6875 21.5 17.330078
43.125 22.5 17.389893
43.8125 23 9.2800293
45.25 26.5 6.4099121
35.25 -0.5 10.719971
38.4375 7 7.8701172
38.875 8 7.5900879
41.5625 14.5 5.9099121
42 15.5 7.1599121
43.625 20.5 11.340088
44 21.5 13.01001
44.5 22.5 11.340088
45.5 24.5 6.6799316
45.875 25.5 10.280029
46.3125 27 9.4399414
46.75 28 9.3999023
38.9375 5 14.98999
39.4375 6 12.879883
46.625 23.5 7.6499023
47.0625 24.5 8.4699707
47.3125 26 13.449951
38 -1 16.040039
38.375 0 18.639893
38.8125 1 18.850098
39.3125 2 17.159912
39.75 3 15.679932
41.75 7 7.1899414
47.0625 20 6.6699219
39.4375 -1 16.48999
40.25 1.5 18.179932
41.25 3 13.550049
42.1875 5 10.719971
44.8125 11.5 10.01001
46.125 15 10.669922
46.625 16 9.3200684
47.1875 17 4.2399902
47.5625 18 6.9199219
41.0625 0 15.350098
44.5625 9 15.889893
45.5 11 13.149902
43 1 12.810059
44.5 4 6.1799316
46.5 10 13.800049
46.9375 11 13.22998
46 4.5 14.070068
46.4375 5.5 14.540039
47.375 7.5 11.219971
44.625 -1.5 18.949951
45.0625 -0.5 18.969971
45.625 0 13.719971
46.0625 1 13.149902
46.875 3.5 17.26001
45.8125 -1.5 21.399902
46.3125 -0.5 19.300049
46.8125 0 14.790039
47.625 2.5 19.060059
0.25 27 5.8000488
0.6875 28 6.5
1.125 30 14.300049
1.5625 31 12.280029
0.75 24.5 9.6999512
1.1875 25 8.0400391
2.4375 29.5 16.290039
2.875 30.5 16.929932
3.25 31.5 13.459961
0.5 19 9.1699219
3.4375 26.5 5.6899414
4.6875 30.5 11.080078
0.875 17.5 14.48999
1.6875 19.5 13.300049
2.9375 21.5 5.2199707
1.8125 17 14.25
3.5 20.5 9.4099121
4.75 24 11.469971
0.3125 9 11.530029
2.4375 15 15.590088
3.6875 18 12.5
5.8125 23.5 14.550049
6.25 24.5 12.669922
6.625 24.5 6.7299805
0.4375 6 18.800049
0.8125 6.5 15.459961
1.25 7.5 15.23999
1.625 8.5 12.850098
2.0625 9 10.189941
2.5 10 9.5900879
4.5625 15.5 9.3999023
5.4375 18 11.620117
5.875 19 10.649902
6.75 21.5 14.149902
8 24.5 12.530029
9.6875 29 15.350098
10.0625 30.5 16.360107
10.5 31 13.23999
0 0.5 16.449951
0.4375 1.5 17.060059
0.8125 2 13.280029
1.3125 4 17.98999
2.9375 7.5 12.929932
3.375 9 15.330078
3.75 10 13.73999
4.1875 10.5 11.540039
5.875 14.5 9.8798828
7.125 17.5 5.8701172
8.875 23 15.030029
11.375 29.5 14.860107
11.8125 30 12.899902
1.375 1 18.320068
1.75 1.5 15.189941
2.125 2 10.459961
3.0625 5.5 20.540039
3.5 7 22.149902
3.875 7.5 20.639893
4.25 8 15.899902
4.6875 8.5 12.939941
5.0625 10 12.790039
9.3125 20 7.8701172
11.875 27 11.300049
12.25 29 16.780029
12.6875 29.5 15.870117
13.125 30 11.139893
1.8125 -2 15.22998
2.25 -1 14.429932
5.625 7.5 13.300049
6 9 13.129883
6.4375 9.5 11.209961
7.3125 12.5 14.939941
9.375 17 8.5500488
11.0625 21.5 9.3400879
12.75 26.5 14.52002
13.1875 28 17.719971
13.625 28.5 16.209961
13.625 28.5 15.360107
14.0625 29 11.139893
14.4375 30 11.120117
3.75 -1 14.610107
4.125 0 12.649902
4.5 1 10.870117
4.875 1 6.1999512
5.8125 5 15.060059
6.3125 6.5 18.780029
7.875 9 7.5400391
10.0625 15 11.100098
10.4375 15.5 7.3898926
10.875 17 10.77002
13 22.5 10.649902
13.4375 24 11.590088
13.8125 25.5 15.659912
14.25 27 17.330078
14.6875 28 16.820068
15.125 28.5 13.909912
15.5 29.5 12.959961
15.9375 31 16.139893
16.375 31.5 12.429932
16.8125 31.5 3.1201172
4.9375 -1 12.800049
8.75 9 11.77002
9.125 10 11.159912
10.875 15 16.199951
11.25 15.5 13.179932
12.5625 18.5 9.9499512
13.8125 22.5 15.52002
14.25 23 12.540039
15.5 26 9.2600098
15.9375 27.5 12.659912
16.3125 28.5 12.189941
17.1875 31 13.219971
5.625 -1.5 16.669922
6 -1 12.22998
6.4375 0 11.120117
6.875 1.5 14.379883
8.1875 5 14.199951
8.5625 5.5 11.899902
9.875 9 13.439941
14.5 21.5 17.060059
16.625 25.5 7.5100098
18.3125 30 7.25
18.75 30.5 3.2099609
9.9375 5 10.929932
11.25 8.5 12.110107
11.6875 10 14.919922
13.75 15.5 15.780029
14.1875 16 11.72998
15.875 20.5 12.25
17.5625 24.5 9.1398926
18.4375 26 5.8000488
19.6875 30 10.709961
20.125 31 9.4599609
8.8125 -1.5 14.439941
13.875 11 11.209961
16 17 12.629883
16.4375 18 13.98999
16.8125 19 13.98999
17.25 20.5 14.429932
19.8125 26 9.3601074
20.625 28.5 9.0500488
10 -0.5 18.909912
12 4 11.689941
12 3 7.7399902
12.875 6 12.25
14.1875 10 15.340088
14.9375 10.5 5.7099609
17.125 17.5 17.169922
17.5 18.5 15.169922
17.9375 19.5 15.129883
18.375 20.5 13.610107
19.1875 22 10.219971
20.875 26.5 11.219971
21.3125 28 12.209961
21.75 28.5 10.030029
10.9375 -1 16.48999
11.25 -0.5 12.810059
12.5 2.5 9.1799316
12.9375 3 7.1999512
14.75 9 17.959961
14.75 9 17.719971
17.6875 16.5 18.5
18.0625 18 18.340088
18.5 19 18.209961
18.9375 19.5 16.689941
19.75 21.5 12.48999
20.1875 22.5 13.469971
20.5625 23.5 11.379883
21.4375 25.5 9.75
21.875 27 16.889893
22.25 28 14.77002
22.6875 29 12.330078
23.125 30 12.370117
23.5625 31 11.209961
24 31.5 6.0400391
11.9375 -2 14.23999
12.375 -1 12.290039
12.8125 1 17.050049
14.5 4.5 12.840088
15.3125 7 12.790039
17.0625 11 13.600098
17.4375 12 13.439941
20 19 14.679932
20.8125 21 13.439941
21.25 21.5 9.4399414
21.6875 22 4.7600098
22.125 24.5 15.77002
22.5 26 18.110107
22.5 25.5 15.709961
22.9375 27 18.659912
23.375 28 17.659912
23.75 28.5 12.939941
13.6875 -0.5 17.98999
14.125 0 16.209961
14.5 1 13.719971
15.375 3.5 15.469971
17.0625 8 15.790039
17.875 10 15.830078
18.3125 10.5 12.709961
19.125 13 12.75
22.5 20 3.8100586
24.1875 25.5 11.389893
24.625 27 13.26001
25.0625 28 13.040039
25.5 28.5 8.7199707
14.875 -1 16.77002
16.5 3 13.620117
17.75 6 12.330078
18.1875 6.5 9.8200684
20.3125 13 15.699951
20.75 13.5 12.469971
21.5625 16 14.47998
24.9375 24 11.350098
25.8125 26 10.399902
26.25 27 8.6398926
27.0625 29 5.6398926
27.5 30.5 8.8200684
16.5 0.5 13.919922
17.3125 2.5 14.02002
19 6 9.4399414
20.6875 11.5 15.860107
21.125 12 13.590088
21.5 13 11.300049
22.4375 16 18.780029
23.25 17.5 12.969971
23.625 18 8.2600098
25.75 23.5 8.5100098
26.1875 25 10.600098
27 26.5 7.8000488
17.0625 -1 16.919922
18.25 2 13.080078
21.25 9.5 11.73999
23.75 16 13.310059
27.5625 25 8.0600586
28 26 7.5200195
18.6875 -0.5 13.840088
19.125 0.5 14.51001
22 7 5.4799805
22.875 10 11.110107
23.3125 10.5 8.9299316
24.125 12.5 7.4899902
25.4375 16 9.2700195
25.875 17 9.4599609
26.25 18 8.5800781
26.6875 19.5 10.02002
27.125 21 13.540039
27.125 21 13.350098
28 22.5 9.8100586
29.25 25.5 7.8000488
30.125 27.5 5.4299316
30.9375 30 9.3000488
19.375 -2 16.389893
20.1875 0 14.860107
20.625 1.5 16.830078
21 2.5 14.879883
25.625 13 5.1398926
28.625 21 9.5600586
29.875 24 7.7800293
30.3125 25 7.3300781
20.625 -1.5 14.330078
21.5 1 16.560059
21.875 2 14.629883
24 6.5 8.75
24.8125 8.5 8.3400879
26.9375 14 7.0700684
27.375 15 5.8701172
28.25 17.5 11.469971
29.0625 19.5 7.7199707
30.375 23 8.4199219
31.625 25.5 6.0900879
33.75 31 6.1999512
25.125 6.5 12.669922
25.9375 8 10.01001
28.5 14 6.8300781
30.625 19.5 6.6201172
31.0625 21 9.5800781
31.5 22 9
34 28.5 8.1999512
35.3125 31.5 5.5200195
23.5 -1.5 14.699951
24.3125 1 15.320068
25.1875 3 15.070068
27.6875 9 13.429932
29.375 13 9.2700195
29.8125 14 9.0900879
30.25 15 8.0300293
32.375 20.5 9.1101074
33.625 23.5 7.0600586
34.5 25.5 5.5400391
24.5625 -2 14.409912
25.4375 0.5 15.389893
25.8125 1.5 14.689941
26.25 2 12.469971
26.6875 3.5 13.100098
27.125 4.5 13.22998
27.5 6 14.320068
27.9375 6.5 11.669922
29.1875 9.5 9.2600098
30.5 13 11.98999
31.75 16 8.3300781
32.1875 17 8.8400879
32.5625 18 8.0200195
36 26.5 8.0600586
25.375 -1.5 17.709961
25.8125 -0.5 16.800049
26.6875 1.5 16.939941
27.0625 2 13.310059
27.5 3.5 15.080078
28.3125 6 15.370117
28.75 6.5 12.459961
29.125 7.5 11.169922
31.6875 14 10.98999
32.5625 15.5 8.75
34.6875 21 6.3999023
27.1875 0.5 18.429932
27.625 1 16.820068
28.5 3.5 17.77002
29.3125 5 15.030029
30.125 7 12.300049
30.5 8 11.169922
30.9375 9 9.7299805
35.1875 19.5 8.4099121
36.875 23.5 5.6599121
28.1875 -1.5 17.320068
28.625 -0.5 15.389893
29 0.5 15.409912
30.3125 3.5 14.350098
30.75 5 16.26001
31.125 6 16.209961
31.5625 7 14.030029
32 7.5 12.290039
32.375 9 12.590088
33.625 11.5 8.0800781
34.0625 12.5 7.2700195
34.5 13.5 6.3400879
36.1875 18 9.1999512
36.625 19 8.9199219
39.1875 25.5 7.3601074
39.625 27 9.5100098
39.625 26.5 7.3999023
40 28 12.75
29.875 -2 10.949951
31.625 3.5 15.939941
32.0625 5 18.379883
32.5 6 18.919922
32.875 6.5 14.530029
33.75 8.5 13.01001
34.5625 10 9.7900391
35 11.5 11.219971
36.25 14 7.5100098
37.9375 18.5 7.7399902
40.5 26 17.570068
40.9375 27 14.719971
41.3125 28 13.629883
41.375 27.5 10.169922
41.8125 28.5 7.9199219
43.0625 31.5 5.4899902
31.625 1 17.919922
32.0625 2 17.639893
32.4375 3 15.360107
32.875 4 15.310059
33.3125 5.5 16.300049
34.125 7.5 15.060059
35 9 11.48999
35.375 10 12.23999
35.375 10 11.830078
35.8125 11 11.22998
36.25 12 9.3601074
39.1875 19.5 7.6899414
40.5 23 11.290039
40.9375 24 9.0200195
42.1875 27.5 11.110107
32.0625 -0.5 16.820068
32.5 0.5 15.580078
32.9375 1.5 15.580078
33.375 2.5 15.080078
35.4375 8 13.780029
35.875 9 13.25
36.75 11 11.939941
37.5625 13 11.429932
38.8125 16 7.8701172
39.25 17 8.8798828
39.6875 18 9.0600586
41.375 23 11.22998
41.8125 24 11.189941
42.25 24.5 8.75
43.5 28 8.3701172
43.9375 29 7.3999023
44.8125 30.5 3.8999023
33 -1.5 16.560059
34.25 2 17.879883
35.0625 3 12.629883
35.9375 5.5 15.159912
37.1875 8 8.9799805
37.625 9.5 11.73999
38 10.5 11.310059
38.875 13 11.530029
39.3125 13.5 8.8798828
40.125 15.5 6.8200684
41 18 11.860107
41.875 21 16.320068
42.25 22.5 19.030029
43.5625 24.5 8.7399902
44.8125 27.5 8.5400391
46.125 30.5 6.1899414
35.875 2 11.939941
36.75 4 12.01001
38 7 8.5800781
38.375 8 7.7099609
38.8125 9 6.7600098
39.25 9.5 5.4299316
40.125 12.5 9.1000977
43.9375 22.5 11.399902
44.375 23 9.2600098
44.8125 24 6.1499023
46.0625 28 11.830078
46.9375 29.5 5.7399902
38.5 6 13.060059
38.875 6.5 8.8100586
39.75 8.5 7.6298828
41.4375 13 5.4799805
41.875 14 5.2299805
42.3125 15 7.2700195
42.75 16.5 9.6599121
43.125 17.5 9.8601074
44.875 22 11.169922
45.6875 23.5 6.0800781
46.125 25 10.22998
46.125 25 9.1101074
46.9375 27.5 11.51001
47.375 28.5 9.2700195
36.4375 -2 11.719971
37.75 1 10.52002
39.4375 6 13.110107
44.125 17.5 10.790039
45 20 11.98999
46.6875 23.5 7.7399902
47.125 25 12.25
37.8125 -1.5 16.320068
38.25 0 18.600098
39.125 2 17.219971
39.5 2.5 15.719971
40.75 5 7.7600098
45 16 10.959961
40.3125 1.5 15.370117
41.125 3 11.409912
42.4375 6 8.4699707
44.5625 11.5 10.01001
45.375 13.5 8.6000977
45.8125 15 10.889893
46.6875 16.5 7.0600586
47.125 17.5 4.5400391
41.25 1.5 15.110107
41.6875 2 12.610107
45.125 11 14.409912
46.8125 15 11.580078
47.1875 16 9.0600586
47.625 16.5 6.6699219
41.5 -0.5 16.129883
42.6875 2 11.26001
44.4375 6.5 13.320068
44.875 7.5 12.110107
46.125 11 14.929932
42.3125 -1.5 17.590088
43.9375 1.5 8.0200195
44.75 3.5 6.5400391
45.6875 6 11.570068
47.375 10 7.6999512
43.5625 -2 14.73999
46.5625 5.5 14.389893
46.9375 6.5 11.01001
45.1875 0 19.340088
45.5625 0.5 15.110107
45.5 0 13.780029
46.375 2.5 15.209961
46.8125 4 16.330078
47.25 5 15.379883
45.9375 -1 20.840088
45.875 -1.5 18.73999
46.3125 0 19.5
47.625 3 19.639893
47.125 -1 19.889893
47.125 -1 19.379883
47.4375 -1 14.120117
1.0625 30 14.379883
1.5 31 12.389893
1.25 24 11.51001
2.125 25 3.9699707
2.4375 26 4.9899902
2.5625 28.5 14.870117
2.875 30 16.179932
3.25 31 16.850098
2 20 8.5800781
2.375 20.5 6.0700684
2.75 21.5 5.0100098
4.875 28 4.9499512
5.125 30 10.25
5.375 31 13.280029
1.5625 15 14.800049
1.8125 16 17.679932
2.25 17 15.25
2.625 17.5 11.080078
3 18.5 11.209961
3.4375 19 7.7299805
3.75 20.5 9.4399414
4.0625 22 11.72998
4.75 24 11.379883
5.125 25 10.350098
6.875 30.5 10.149902
7.1875 31.5 11.120117
0.625 7 16.879883
0.625 6.5 15.23999
1 7.5 14.719971
2.125 10 9.7800293
3.4375 15 12.889893
3.5625 14 7.8000488
3.875 15.5 10.52002
4.25 16.5 9.8100586
6.25 23.5 14.459961
6.625 24.5 11.030029
8.75 31 10.139893
0.625 1 17.689941
1.375 2.5 12.439941
2.3125 6.5 18.870117
2.75 7 14
3.125 8 12.97998
3.4375 9 15.5
3.4375 9 13.570068
3.8125 10 11.560059
4.1875 11 11.699951
7.625 22 12.570068
7.9375 23 14.530029
8.3125 24 12.959961
10 30 16.25
10.375 31 15.219971
2.1875 0 15.360107
2.5 1 15.26001
2.9375 2 11.709961
3.125 4 20.050049
3.5 5 19.300049
3.8125 7 23.149902
4.1875 7.5 20.429932
4.5625 8 17.98999
5 8 11.290039
5.375 9 10.090088
9.3125 20.5 6.0700684
11.9375 30 12.840088
3 -1.5 15.310059
3.75 0.5 12.600098
4.125 1 10.870117
4.5625 1.5 6.2399902
5.1875 4.5 11.530029
5.375 6.5 19.149902
5.875 7 12.560059
6.25 7.5 10.090088
6.5625 9 13.429932
9.0625 16 8.1298828
10.5 20.5 8.5
12 26.5 16.27002
12.5 27 11.459961
12.6875 29 16.73999
13.0625 30 15.429932
13.5625 30.5 11.179932
13.875 31.5 10.97998
4.75 -1 16.159912
5.125 -0.5 13.070068
6.1875 3 12.030029
9.6875 13.5 12.139893
10 14.5 11.429932
10.4375 15 7.5700684
11.8125 19.5 8.8500977
12.8125 23 10.449951
13.6875 27.5 18.75
14.375 29 16.610107
14.4375 29 15.25
14.75 30 15.570068
15.1875 31 13.48999
6.75 -1 11.679932
8.4375 4.5 14.199951
9.8125 9 13.389893
13.9375 22 15.649902
15.5 25.5 9.2700195
15.75 27 12.600098
16.75 30.5 13.419922
17.125 31 12.129883
8.375 0 15.550049
9.8125 4 12.719971
11.1875 8 12.27002
11.875 10.5 13.889893
13.3125 14.5 12.530029
14.625 19.5 15.280029
18.1875 29.5 9.8898926
18.625 30 7.2199707
9.3125 -0.5 16.23999
10 2 17.909912
10.375 3 16.800049
10.75 3.5 14.51001
14.5625 15 13.419922
14.9375 16.5 13.409912
15.9375 20 15.350098
17.4375 23.5 9.2199707
18.5625 26 5.8000488
19.5 30 10.790039
19.875 31 9.4499512
10.4375 -1 18.469971
10.8125 -0.5 15.850098
11.1875 0.5 15.469971
12.3125 3 7.7299805
14.8125 10 5.9499512
14.9375 12.5 16.469971
15.6875 14.5 15.639893
16.75 17.5 13.820068
17.0625 19 13.830078
17.4375 20 14.139893
17.8125 21 12.73999
18.75 24 14.830078
19.1875 25 12.350098
19.625 26 8.9799805
20.625 29 10.280029
12.1875 -1.5 14.090088
13.5625 3 13.169922
15.9375 10.5 14.860107
16.3125 11.5 14.320068
16.6875 12.5 12.879883
17.625 16.5 18.530029
17.9375 17.5 18.379883
18.3125 18.5 18.280029
18.6875 19.5 17.139893
19.0625 20.5 15.120117
19.4375 21 12.570068
19.75 22.5 13.790039
20.1875 23 11.899902
20.5625 24 9.9499512
21.125 27 14.97998
21.5625 27.5 12.320068
21.9375 28.5 10.100098
22.25 29.5 12.540039
13.625 -0.5 17.050049
14 0.5 14.610107
14.625 3 16.429932
15.75 5.5 14.590088
16.0625 7 14.75
17 10.5 17.790039
17.4375 11 15.590088
17.8125 12 11.899902
19.1875 16.5 14.810059
19.8125 19 15.25
20.1875 20 15.959961
20.5625 21 14.47998
21.5 22 4.8701172
21.9375 25 12.98999
22.1875 26.5 17.560059
22.625 27 14.52002
22.9375 28.5 14.870117
23.6875 30 12.459961
24.125 31 8.25
14.4375 -1 17.050049
14.8125 0 15.030029
15.4375 2.5 18.330078
15.875 3 14.340088
16.25 4 14.189941
16.5 5.5 16.47998
17.9375 9.5 16.040039
18.3125 10 12.860107
18.625 11.5 13.689941
20.75 17.5 12.02002
22.1875 21.5 9.1298828
22.6875 24.5 16.179932
23 26 19.110107
23.375 27 17.280029
23.75 28 15.290039
24.25 28.5 10.76001
16.875 2 15.649902
17.9375 5 13.26001
18.375 6 10.120117
21.375 16 14.379883
22.5 19 11.300049
24.5 25.5 12.709961
24.875 26.5 11.530029
25.1875 28 13.189941
25.625 28.5 8.7399902
26.0625 29 7.1101074
17.75 1 18.709961
18.5 2.5 14.550049
19.625 5 10.429932
21 9.5 11.810059
23.9375 17.5 4.2600098
25.1875 22.5 9.2299805
26.1875 25.5 9.5800781
27.3125 28.5 5.7600098
27.5625 30 10.48999
19.5 2.5 16.679932
19.875 3.5 14.639893
20.25 4 11.659912
22.75 11 7.8701172
23.0625 12 8.4299316
23.4375 13 7.4699707
24.8125 17.5 7.9899902
26.125 22 10.080078
26.75 24.5 12.330078
27.25 25 7.9799805
28.8125 31 12.969971
19.1875 -1.5 14.97998
19.5 0 15.090088
19.8125 1 15.689941
20.1875 2 16.97998
20.5625 3 13.320068
23 10 10.340088
23.75 12 8.6699219
25.5 17.5 9.1298828
25.875 18 7.4899902
26.4375 21 12.120117
26.75 22 11.75
27.4375 24 12.530029
28.25 26 7.2800293
20 -2 16.580078
20.375 -1 14.320068
20.6875 0.5 17.560059
21.0625 1.5 16.870117
25 12 6.3999023
25.375 13 5.2299805
25.9375 16 10.689941
26.25 17 11.639893
26.6875 17.5 8.7700195
27.625 21.5 12.669922
28 22 10.320068
29.125 25 7.5600586
29.4375 26.5 8.3898926
30.25 28 4.5100098
21.5625 -1.5 15.850098
22.625 1.5 13.080078
22.9375 3 14.73999
23.3125 3.5 12.429932
24.75 7.5 9.4799805
25.375 10 12.360107
26.0625 12 12.850098
26.5 13 10.330078
26.875 13.5 7.1899414
27.25 14.5 5.8000488
27.5625 16 7.5400391
28.5625 19 8.0300293
28.9375 20 6.8100586
31.6875 29 7.6499023
32.4375 31 5.0800781
23.6875 1.5 15.909912
23.9375 3 19.370117
24.3125 4 16.810059
25.4375 6.5 12.909912
25.8125 7.5 11.620117
26.1875 8 9.9799805
26.5 9.5 10.669922
28.3125 14.5 6.6699219
28.875 17 10.800049
29.25 18 9.5900879
30 20 6.5600586
30.6875 22 9
33.125 29.5 7.4099121
23.6875 -1 14.699951
24.625 2.5 19.050049
27.1875 9 11.550049
27.5 10 10.639893
27.875 11 9.8500977
28.5625 13 9.0900879
28.9375 14 7.4899902
29.625 16 7.4199219
30.3125 18.5 7.1499023
30.6875 19.5 6.5300293
31.9375 24.5 11.719971
33.75 29.5 7.6799316
34.125 30.5 6.9399414
24.4375 -1.5 14.419922
24.75 -0.5 15.090088
24.75 -0.5 14.949951
25.125 0.5 15.340088
26.5 4.5 13.060059
27.5625 8 12.050049
27.875 9 13.52002
28.25 10 11.330078
29.3125 13 9.5
30 15 8.6000977
30.6875 17 10
31.75 20 7.1699219
32.125 21.5 7.4699707
34.1875 28 6.9599609
34.5625 28.5 4.8999023
35.1875 31 8.6499023
25.5 -1.5 17.669922
25.5 -2 16.709961
26.1875 0.5 16.5
26.5 1.5 16.810059
26.9375 2 13.370117
27.25 3.5 15.02002
27.5625 4.5 15.719971
27.9375 5.5 14.310059
28.6875 7 10.949951
30.375 12.5 11.929932
30.75 13.5 10.679932
31.0625 14.5 10.719971
32.8125 20 10.340088
33.9375 23 5.9899902
35.25 27.5 8.8000488
35.625 28.5 6.6999512
36.1875 31 11.040039
26.8125 -1 18.550049
27.1875 0.5 19.310059
27.1875 0.5 18.870117
27.5 1.5 18.139893
28.5625 4.5 17.060059
28.9375 5.5 15.620117
29.625 7 12.429932
30 8 10.959961
30.375 9 9.6000977
30.75 10 8.6298828
31.75 13.5 11.360107
32.0625 14 9.8300781
33.125 17.5 9.1398926
33.8125 19.5 8.8999023
34.5625 21.5 5.3701172
36.25 27 6.8798828
37.3125 30 7.0700684
37.75 31 3.7600098
27.5625 -1.5 17.330078
27.9375 0 18
28.25 1 17.300049
28.625 1.5 13.98999
29.625 5 15.51001
30.0625 5.5 12.27002
30.75 7.5 11.429932
31.125 8.5 9.7199707
32.1875 11.5 7.3200684
34.9375 20 6.5500488
38.375 31 5.3400879
28.4375 -2 17.98999
28.75 -1 15.23999
29.125 0 16.550049
29.4375 1 15.370117
30.1875 3 14.27002
30.5 4 14.780029
30.8125 5.5 16.469971
31.125 6.5 16.129883
31.875 8.5 13.219971
32.25 9 10.379883
33 11 8.4899902
33.375 12 6.9799805
33.6875 13 6.2800293
34.0625 14 5.8500977
35.6875 20 8.9599609
36.75 23 8.9199219
37.1875 23.5 4.2600098
39.1875 30.5 6.9699707
30.5 1 15.850098
31.5 4 15.290039
33.25 9 13.26001
34.0625 10.5 6.8701172
34.375 11.5 8.1398926
34.75 12.5 6.3200684
36.75 19.5 8.6298828
37.0625 20.5 8.3300781
38.8125 25.5 7.3400879
39.125 27 9.3100586
39.1875 27 7.3701172
39.4375 28 10.580078
39.875 29 6.9899902
31.4375 0.5 16.169922
31.75 2 18.530029
32.75 5 16.449951
33.125 6 16.399902
33.5 7 14.5
33.8125 8 14.899902
34.1875 9 13.26001
34.5625 9.5 11.030029
34.9375 10.5 9.6899414
37.375 18 7.7199707
37.6875 19 7.3999023
39.625 26 11.919922
40.3125 28 12.600098
40.875 28.5 3.1799316
41.4375 31 8.9099121
31.8125 -1 15.810059
32.125 0.5 16.469971
32.8125 2 13.780029
33.1875 3 13.090088
33.875 5 12.550049
35.625 10.5 11.939941
35.9375 11.5 11.110107
36.3125 12.5 9.4799805
36.6875 13.5 8.3601074
37.75 16.5 7.2900391
38.375 19 8.6201172
39.75 23 7.9499512
40.25 26 16.399902
40.5625 27 16.189941
41.4375 28.5 9.7099609
41.4375 28.5 9.1298828
33 0 17.860107
34 3 14.459961
34.4375 3.5 11.320068
35.0625 6 13.110107
36.0625 9.5 15.280029
36.4375 10.5 14.199951
36.8125 11 11.73999
37.5 13 11.439941
37.875 14 9.4399414
38.9375 17 7.0300293
39.625 19 7.1899414
40.1875 22 12.909912
40.5625 23 11.409912
40.9375 24 9.0900879
41.0625 26 17.02002
41.875 27.5 12.159912
41.875 27 11.209961
42.25 28 10.090088
42.75 29 4.9699707
43.375 31 7.0600586
36.125 5.5 15.100098
36.5 6.5 12.110107
37.25 8 8.8999023
37.9375 10.5 11.290039
38.25 11.5 9.1101074
38.5625 13 11.72998
39.9375 17 12.139893
40.625 19 11.149902
40.9375 20.5 14.22998
41.5625 23 16.389893
41.9375 24 12.810059
42.3125 24.5 10.639893
42.9375 27 14.120117
43.75 28.5 8.5
44.5 30.5 4.7299805
35 -1.5 12.399902
36.0625 1.5 8.7600098
37.0625 5 12.679932
37.4375 6 9.8400879
37.8125 7 8.6201172
38.1875 8 7.7800293
40.25 14 6.75
40.5625 15 6.9299316
40.8125 17 11.25
41.1875 18 11.810059
42.375 23 17.179932
42.75 24 15.620117
43.25 24 8.8601074
43.875 26.5 11.360107
44.9375 29.5 10.22998
37.0625 2.5 10.310059
38.0625 6 11.320068
38.4375 6.5 9.5500488
39.875 10.5 5.3999023
41.8125 17.5 11.090088
42.1875 18.5 9.4399414
42.4375 20 12.909912
42.6875 21.5 17.530029
43.0625 22.5 17.330078
43.5625 23 9.1999512
45.9375 30.5 8.3701172
37.6875 1 10.459961
37.9375 2.5 14.149902
41.8125 13.5 5.4099121
43.125 18 8.9099121
43.75 21 14.590088
44.0625 22 13.090088
44.4375 22.5 11.280029
45.25 24.5 6.5400391
45.5 26 10.469971
45.8125 27 11.209961
45.875 27 9.5200195
46.9375 29.5 5.8200684
37.8125 -2 16.719971
38.1875 -1 15.209961
38.5 0.5 18.639893
38.8125 1.5 18.840088
39.1875 2.5 15.330078
39.5 3.5 15.25
44 17 10.219971
44.375 18 9.8300781
45 20 11.389893
45.4375 21 8.1398926
46.6875 25.5 12.189941
47 27 13.709961
47.375 27.5 11.459961
39.4375 0.5 18.580078
40.125 2.5 17.100098
40.5 3 13.669922
40.875 4 11.48999
41.9375 6.5 7.4099121
43.625 12 7.6799316
44 13 7.75
45 16.5 9.9199219
46.75 21.5 4.6398926
47.0625 23 7.9699707
40.0625 0 17.669922
40.375 1.5 18.27002
41.125 3 13.610107
41.5 3.5 9.7399902
42.5 6.5 7.5300293
45.5625 16.5 9.2399902
46.3125 18 5.9199219
47 20.5 5.5500488
47.3125 21.5 6.4399414
40.625 -2 13.790039
41 -0.5 14.399902
43.75 7.5 8.9199219
44.125 8.5 8
44.75 11 10.02002
45.125 12 10.02002
46.5 16 9.4299316
47.25 18 4.6101074
41.875 -1.5 17.669922
44 3.5 6.5700684
44.625 6.5 13.530029
44.9375 7 12.040039
45.5625 10 18.370117
45.9375 11 14.790039
46.375 11.5 10.179932
47.375 14.5 9.6201172
47.75 15.5 9.6799316
43.3125 -1 17.110107
43.6875 -0.5 12.590088
44.0625 0.5 10.050049
45.4375 5 10.810059
46.125 7 10.949951
47.0625 10.5 13.939941
44.8125 1 13.97998
45.875 4 14.290039
46.5 6 14.030029
46.9375 7 11.100098
47.25 7.5 8.7900391
47.625 8.5 7.6899414
45.0625 -1 20.610107
45.0625 -1 18.830078
45.375 0 19.439941
45.75 0.5 13.830078
46.125 1.5 13.199951
47.125 5 15.330078
47.4375 6 14.060059
45.9375 -2 22.610107
46.25 -1 21.070068
47 0 14.919922
47.4375 -2 17.530029
47.75 -1.5 13.800049
0.125 27 7.4499512
0.5625 28 6.4699707
1 30 11.340088
1.1875 30.5 14.419922
0.625 24 13.110107
1.9375 26.5 5.0100098
2.4375 28.5 8.9499512
2.8125 29.5 9.3898926
2.6875 30 16.280029
0.3125 19 9.1599121
0.75 20 8.3798828
1.125 21 8.2700195
1.4375 22 9.5400391
3 25.5 4.0200195
3.25 26.5 5.8601074
4.1875 29.5 9.2199707
4.4375 30.5 11.120117
0.3125 16.5 13.26001
1.1875 18.5 12.219971
1.8125 20 8.5
2.5 21 4.25
4.0625 25.5 3.8400879
1.375 14.5 5.7700195
1.3125 15 13.060059
1.5 16 15.72998
2.0625 17 13
2.5 18.5 12.649902
3 19.5 10.51001
4.25 23 9.6201172
0 7 16.939941
0.5625 8.5 14.540039
2.6875 13 4.9599609
3 14 6.2299805
3.5 16 10.689941
3.9375 17 9.9199219
4.3125 18 9.9399414
5.125 19.5 4.0100098
5.125 20 9.9899902
5.375 21 12
5.625 22 13.360107
8.375 29 7.7099609
8.75 30 7.8200684
8.9375 31 10.360107
0.3125 4 17.25
0.6875 5 17.550049
2.25 8.5 10.290039
2.6875 9.5 9.7800293
3.375 11.5 11.709961
5.25 17 11.669922
6.4375 21 17.620117
9.375 28.5 13.879883
9.6875 29.5 15.290039
0.1875 -0.5 13.080078
0.375 0.5 16.419922
0.6875 1.5 16.889893
1.375 3 12.419922
1.625 4 14.679932
1.875 5 16.320068
2.25 6 16.100098
2.5 7 18.75
3.3125 8 11.840088
3.5 9 15.459961
3.5625 9 13.719971
4.125 10.5 11.570068
6.125 16 10.219971
7.75 21 14.47998
8.3125 22 11.840088
10.6875 28.5 11.550049
10.75 29.5 15.870117
11.0625 30.5 16.439941
1.375 -1.5 7.0400391
1.5 0 17.870117
2.0625 1.5 15.209961
3.25 5.5 20.51001
3.5 6.5 22.070068
4 7.5 20.629883
4.1875 7.5 17.73999
4.875 9 12.919922
5.25 10 12.879883
6.25 12 9.2099609
7.125 15 13.649902
7.625 16.5 11.77002
9.125 20 7.0900879
11.625 27 9.9699707
12.5625 29.5 7.5100098
12.5 30 13.780029
5.375 4.5 6.1101074
5.3125 6 19.27002
6.25 7.5 10.060059
6.4375 8.5 13.459961
7.4375 11 10.370117
7.5625 12 14.030029
8.5625 14 10.570068
9.4375 16.5 8.7700195
10.9375 20.5 9.4099121
12.6875 25 7.1000977
12.5625 25.5 13.800049
12.875 26.5 14.659912
13.1875 27.5 16.060059
13.5625 28.5 16.419922
14.3125 30 11.129883
14.6875 31 11.02002
4.375 -1 16.689941
10.1875 15 15.5
11.75 18.5 9.0400391
12.5 20.5 9.6599121
12.8125 21.5 10.560059
13.1875 22.5 10.72998
14.3125 26.5 16.919922
14.6875 27.5 17.100098
15.375 29 12.98999
15.875 31 16.48999
5.5 -1.5 16.830078
6.25 0 11.01001
6.8125 2 14.300049
10.5 11.5 10.73999
10.8125 13.5 17.399902
12.875 18 9.5200195
13.5625 20 10.939941
13.8125 21 13.280029
15.375 24.5 7.2800293
15.625 25.5 9.3200684
15.8125 26.5 12.219971
16.125 27.5 12.679932
16.5625 28.5 12.060059
17.25 31 13.409912
7 -1.5 12.110107
8.75 3.5 15.01001
10.25 7 10.040039
11.25 10 12.300049
13.3125 15.5 10.01001
14.3125 18.5 12.100098
16.8125 24.5 4.0100098
17.1875 25.5 4.8200684
18.8125 30.5 9.0600586
9.0625 0 16.340088
9.75 2 16.949951
10.125 3 17.909912
12.3125 8.5 13.040039
13.8125 12 8.1599121
13.9375 13.5 17.389893
14.3125 14.5 17.850098
18.125 24.5 13.030029
20.25 30 10.080078
10.9375 0.5 15.590088
12.3125 4 11.77002
13.6875 8 14.280029
14 9 15.820068
14.375 10 15.449951
15.4375 12.5 11.610107
16.5625 16 11.629883
16.6875 16.5 15.790039
16.9375 17.5 17.139893
17.4375 19 15.610107
17.8125 20 15.439941
19 22 10.350098
19.5 24 13.97998
20.25 25.5 8.3898926
20.8125 27.5 11.300049
11.1875 -2 16.939941
11.875 -0.5 12.48999
12.3125 1.5 17.139893
13.4375 3.5 11.370117
14.5 7 13.530029
15.125 9 15.47998
15.875 11 15.110107
17.875 17 19.360107
18.3125 18 18.870117
18.8125 19.5 17.02002
20 22 11.76001
21.25 25 9.8200684
21.8125 27 13.100098
22.0625 28 14.600098
22.625 29.5 12.459961
12.9375 -1 14.199951
13.25 0 15.300049
14.5 3 13.689941
14.9375 4 13.590088
15.3125 5 12.840088
15.75 6.5 11.939941
16.3125 8.5 15.879883
16.6875 9.5 15.649902
16.875 10.5 18.600098
17.5 11.5 14.550049
18.25 13 9.9199219
19 15 10.110107
19.25 17 17.290039
20.1875 19 14.860107
22.25 24.5 12.889893
22.4375 25.5 15.75
22.5625 26 18.75
23.0625 27.5 17.48999
23.625 28.5 15.100098
14.25 -2 16.679932
14.625 -1 17.030029
15.25 0.5 13.459961
15.625 1.5 13.77002
16.8125 4.5 13.27002
17.9375 8 13.399902
18.75 10 12.820068
24 25 14.439941
24.5 26 13.199951
24.875 27 13.300049
25.25 28 13.159912
26.125 30 6.9099121
17.25 2 15.52002
18.375 4.5 10.449951
20 9.5 15.01001
22.125 16 17.300049
26.5625 27 8.7800293
27.0625 28 7.4299316
17.9375 0.5 17.52002
19.875 5 10.850098
22.8125 12.5 7.6999512
25.625 21 10.949951
26.5 23.5 9.4899902
28.875 30 9.2700195
29.0625 30.5 12.040039
19.3125 0 15.300049
19.9375 2 16.889893
22.25 7 5.4499512
23.9375 12 8.7700195
25.4375 16 9.2700195
25.875 17.5 9.1599121
26.5625 19.5 9.8200684
26.8125 20.5 11.919922
27.0625 21.5 13.439941
27.6875 22.5 10.370117
27.9375 23.5 12.370117
28.375 24.5 11.899902
20.25 -2 16.340088
20.75 -0.5 14.330078
21.375 1.5 17.090088
22.75 5 12.909912
23.8125 7 8.7700195
24.625 9.5 7.9899902
24.9375 10.5 9.3000488
25.25 11.5 10.600098
25.625 12.5 10.560059
26.6875 15 6.2900391
27.25 17 8.8400879
27.625 18 9.3100586
28 19 10.070068
31.75 29 6.0700684
32.625 31 5.1101074
21.625 -2 15.620117
22.0625 -1 14.810059
22.3125 0 16.01001
22.9375 1.5 12.909912
23.8125 4.5 16.48999
25.8125 9 9.8100586
26.0625 10 12.040039
28 14.5 6.6599121
28.5 15.5 5.2600098
28.8125 17.5 11.120117
29.9375 20 6.4399414
30.5 22 8.9699707
32.8125 28.5 9.4499512
23.1875 -1.5 14.72998
24.375 3 19.23999
25 4 15.790039
25.875 6 14.600098
27.1875 9.5 11.550049
27.625 10.5 10.629883
28.9375 14 9.2600098
29.8125 16 7.4199219
31.0625 19.5 6.4299316
31.375 20.5 7.3701172
32.6875 24.5 10.370117
34.125 28 6.8500977
35.125 31 8.6000977
24.75 -1 15.060059
26.8125 4.5 13.120117
27.125 5.5 13.889893
28.0625 8 11.610107
29 10 9.2099609
33.75 23 7.4199219
34.75 25.5 4.6699219
34.9375 26.5 7.4099121
35.1875 27 9.3100586
36.25 30.5 10.100098
26.5 -0.5 17.719971
27.3125 1.5 16.959961
27.875 3 14.040039
28.125 4 16.189941
28.4375 5 17
29 6 14.820068
29.5 7 12.439941
30.5 9.5 9.3500977
31.625 12.5 9.7800293
31.875 13.5 11.330078
32.875 16 8.1899414
33.25 17 8.9499512
27.875 -1 17.370117
28.3125 0 16.350098
28.8125 1.5 15.459961
30.625 6.5 16.290039
32.75 11 8.1298828
34.75 17 7.1298828
35.5 19 7.9499512
35.75 20 8.8798828
36.9375 23 8.9099121
39.5 30 6.0200195
39.75 30.5 8.0700684
30.75 3 13.850098
31.125 4 13.459961
31.3125 5 16.090088
31.6875 6 16.030029
32.125 7 15.47998
33.8125 11 8.4099121
34.1875 12 8.3300781
34.75 13 6.2600098
35.875 16.5 6.2700195
36.375 18.5 9.5200195
37.25 20.5 8.4099121
37.4375 21.5 10.790039
39.25 26 7.4299316
39.5 27 9.4699707
39.75 28 10.810059
40.625 29.5 5.2099609
30.625 -0.5 15.100098
31.5625 2.5 17.919922
32.0625 3.5 16.419922
32.5 4.5 14.820068
33.3125 7 14.629883
33.6875 8 15.159912
34.1875 9 13.23999
34.8125 10 9.8000488
35.0625 11 11.149902
35.125 11 10.939941
37.6875 18 7.4299316
38.0625 19 7.5400391
38.375 20 8.5
40.0625 26 16.199951
40.5 27 15.800049
41.4375 28.5 8.9899902
32.0625 -1.5 15.22998
34.5 5 12.840088
36 9.5 13.330078
36.25 10.5 15.23999
36.875 11.5 11.860107
37.3125 13 11.290039
39 17 8.7199707
39.9375 19.5 7.2199707
40.5 21.5 9.8798828
41.25 24.5 14.73999
41.9375 25.5 11.139893
42.3125 27 10.939941
43.75 30 7.7900391
33.25 -2 17.800049
35.625 4.5 16.01001
37.3125 8 9.0600586
37.875 10 11.429932
38.6875 12.5 10.790039
39 13.5 11.840088
40.1875 16.5 11.939941
40.5 17.5 12.649902
41.5 20.5 14.77002
41.75 21.5 16.379883
42.125 22.5 16.51001
42.5625 24 15.649902
44.75 29 7.5400391
37.875 6.5 11.120117
38.5 8 7.7199707
39.4375 10 5.1899414
41.3125 15.5 5.9899902
42.1875 18.5 9.5
42.75 19.5 7.4799805
42.8125 21 16.76001
43.0625 22 18.129883
44.1875 24 9.1499023
45.5625 28 11.23999
36.4375 -1.5 11.51001
38.5625 4.5 13.570068
42.5 14.5 7.6201172
43.125 16.5 9.0900879
44.125 20 11.350098
46.1875 25.5 9.3100586
46.25 26 13.02002
46.75 27 12.129883
47.3125 28.5 9.8300781
37.9375 -1.5 16.209961
38.375 0 14.959961
38.5 0.5 18.659912
38.875 1.5 18.929932
39.5 3 15.800049
40.8125 5.5 7.5700684
43.4375 13 9.1398926
43.75 14 10
46.875 22 4.8100586
47 23 7.6999512
47.375 24 7.8701172
47.75 25 8.1499023
39.5 -0.5 16.51001
39.75 0.5 18.47998
40.625 2.5 16.310059
41.3125 4 11.659912
41.875 5 9.6000977
42.3125 6 8.4499512
45.5 15.5 12.47998
46.5 17.5 4.5600586
46.875 18.5 4.7399902
47.4375 20.5 7.2399902
40.75 -1 12.590088
41.125 1 18.219971
43.625 7 10.090088
44.5 9 8.8000488
44.8125 11 14.649902
45.875 13 10.879883
46.5625 15.5 11.669922
42.4375 -0.5 12.719971
46.625 11.5 13.22998
45.5625 3.5 11.540039
45.75 4.5 13.98999
46.125 5.5 14.330078
47.1875 8 10.790039
47.3125 8 8.4899902
44.8125 -1.5 19.02002
45.1875 -0.5 19.340088
45.9375 1 13.98999
46.8125 4 17.340088
45.5625 -2 21.530029
46 -1 20.810059
47.0625 1.5 16.090088
47.625 3.5 18.929932
47.25 -1.5 19.330078
1 31.5 7.9899902
1.3125 27 3.0100098
1.5 28 5.0300293
1.8125 29 5.8999023
1.75 29.5 11.469971
1.6875 30 16.540039
2.0625 31 16.5
0 20 3.9799805
0.5625 23 15.76001
2.3125 26.5 5.3601074
2.75 27.5 4.5900879
3 29 11.050049
3.25 30 12.320068
3.25 30.5 16.580078
0.8125 19 9.3898926
1.3125 20 8.2700195
1.625 21 9.2700195
2.8125 23.5 4.8300781
3.8125 26.5 7.4399414
4.8125 29.5 9.4499512
0.9375 14.5 10.129883
1.125 15.5 13.120117
1.25 15.5 11.389893
1.3125 16 15.030029
2.875 20 11.040039
4.125 23 10.540039
4.375 24 11.860107
4.9375 25 10.360107
6.75 30 7.9799805
6.9375 30.5 10.100098
7.25 31.5 11.120117
2.375 14 8.7700195
2.6875 15.5 14.320068
3.4375 17 9.9799805
3.875 18 9.9299316
4.75 20 4.2700195
4.875 21 11.899902
5.3125 22 11.659912
5.5 23 14.169922
5.875 24 14.590088
8.5 30 7.8100586
8.6875 31 10.149902
0 4.5 12.550049
0.25 6 18.790039
0.9375 7 15.419922
1.5 8.5 12.919922
2.1875 10 9.6000977
2.625 11 9.2600098
2.5625 11.5 14.879883
4.8125 16.5 7.1999512
4.8125 17 11.820068
5.25 18 11.52002
5.75 19.5 10.139893
6.0625 21 15.540039
6.625 22 14.139893
9.1875 28.5 12
9.4375 29.5 13.780029
9.8125 30.5 13.719971
0.0625 1 16.689941
0.4375 2 17.26001
2.125 6 16.159912
3.125 8.5 13.040039
3.25 8.5 11.860107
3.3125 9.5 15.550049
4.0625 11 11.649902
5.75 15 10.199951
6.1875 16 10.290039
7.3125 19 11.040039
8.4375 22.5 11.800049
8.5 23 15.52002
10.625 28 9.9299316
10.875 29 15.840088
11.25 30 16.209961
1.375 -1.5 7.1298828
1.25 -1 13.73999
3.5 5 10.090088
3.125 5 19.610107
3.5 6 20.330078
3.5625 6 18.909912
3.6875 6.5 22.360107
4.4375 8 18.02002
6.25 12 11.149902
6.875 14 12.780029
9.375 20 7.2600098
9.6875 21 8.0600586
11.75 26 7.9199219
11.625 26.5 13.280029
12.25 28 11.139893
12.4375 28.5 13.370117
13.125 30.5 14.689941
2.0625 -2 16.590088
2.8125 -0.5 12.399902
4.25 3.5 14.120117
4.875 5 11.570068
4.6875 5 18.689941
5.375 6.5 14.919922
6.3125 9 13.459961
7.375 11.5 10.419922
7.4375 12 13.830078
9.25 16 7.0600586
9.5 17 8.7600098
10.75 20 7.8798828
11 21 10.040039
12.5625 25 10.629883
12.875 25.5 7.1000977
12.625 26 13.840088
12.8125 26 11.830078
12.9375 27 14.709961
13.1875 27.5 16.290039
13.625 28.5 16.47998
14.5 30.5 11.27002
5.3125 2 6.8500977
5.8125 4.5 15.169922
8.5625 11 11.179932
9.25 13.5 11.870117
11.6875 19 7.6000977
11.9375 20 9.1201172
12.625 22 10.350098
13 23 10.600098
13.3125 24 11.580078
13.8125 25 10.139893
13.75 25.5 15.639893
14 26.5 17.26001
14.375 27.5 17.360107
15.125 29 13.649902
15.5 30 13.790039
15.6875 31 16.199951
5.1875 -1 17.179932
6.3125 1 12.76001
6.5625 2 14.23999
8.75 7.5 12.52002
10.3125 12 12.629883
10.625 13 13.340088
10.6875 13.5 17.189941
13.6875 21 14.929932
13.875 22 17.360107
15.4375 25 9.1101074
16 26 7.7399902
15.9375 26.5 12.290039
17.4375 31 13.449951
8.8125 3 13.429932
10.25 6.5 10.01001
11.25 9.5 12.800049
11.4375 10 14.929932
12.5625 12.5 11.439941
13.1875 14.5 13.649902
14.5625 18.5 16.080078
14.6875 19 18.840088
18.4375 28 8.7900391
18.75 28.5 9.8898926
19.5625 31 9.4099121
8.9375 -0.5 16.330078
9.6875 1.5 16.77002
10 2.5 18.060059
13.1875 10 12.790039
13.875 12 13.959961
14.1875 13 14.860107
14.3125 14 18.47998
14.875 15 16.629883
16.6875 19.5 14.02002
17.0625 20.5 14.530029
20.5 28.5 3.6101074
20.375 29 8.9099121
9.625 -2 16.219971
9.75 -1 19.389893
10.875 1.5 15.23999
11.125 2.5 16.919922
12.4375 5 10.610107
13.875 9.5 17
15.1875 12.5 11.669922
16.75 16.5 11.639893
16.625 17 17.399902
17.0625 18 17.189941
17.625 19.5 15.429932
18 20.5 15.379883
19.125 23 11.959961
20.8125 27 11.350098
21.125 28 12.320068
11.125 -1 16.48999
11.875 1 17.129883
13.125 3.5 11.47998
13.6875 5.5 14.870117
14.625 7.5 12.889893
15.0625 9 17.120117
17.75 15.5 9.0300293
17.625 16 14.780029
17.75 16.5 18.439941
19 20 17.199951
20.25 22.5 12.73999
21 24.5 12.919922
21.5 25.5 12.080078
21.6875 26 10.02002
21.625 26.5 14.929932
21.875 27 16.98999
22.6875 29 12.320068
23.0625 30 12.409912
23.625 31 11.290039
12.875 -1.5 14.590088
14.125 1.5 13.399902
14.75 3.5 15.800049
15.375 5 12.820068
15.625 5.5 14.969971
16 7 14.850098
16.3125 7.5 15.969971
16.75 9 15.360107
17 9.5 17.689941
18.25 12.5 12.120117
18.5625 13 12.97998
19.625 16 14.51001
20.125 17.5 13.590088
20.375 18 15.23999
20.875 19.5 14.360107
22.875 23.5 5.7900391
22.875 24 9.8898926
22.6875 24.5 16.25
23.0625 25 12.100098
23.0625 25.5 16.570068
23.25 26 19.070068
23.9375 28 15.620117
15 0 15.629883
15.5625 1 13.639893
16.875 4.5 12.709961
17.0625 5 15.070068
17.6875 6.5 12.399902
19.25 10.5 12.810059
19.375 11.5 16.040039
19.5625 12 17.949951
21.6875 17 12.189941
24.5 24 8.0600586
24.625 24.5 11.360107
25.0625 25.5 10.639893
26.125 28 8.3100586
26.75 29.5 5.9099121
15.8125 -1.5 13.719971
18.0625 4 10.719971
19.5625 7.5 7.1699219
19.625 8 10.850098
19.75 9 14.379883
20.75 11 12.370117
21.625 13.5 11.340088
22.25 16 17.560059
22.25 16 17.360107
22.75 17 16.360107
24.625 21 9.4599609
24.9375 22 10.199951
26.6875 26.5 8.7800293
27.3125 28 6.8000488
28.25 30 5.5300293
28.125 30.5 10.959961
17.25 -1.5 14.929932
17.8125 0.5 17.330078
20 5.5 10.52002
21.5 9.5 11.939941
22.25 11 7.9299316
23.0625 13 7.75
23.75 14.5 4.8601074
25.75 20.5 9.2399902
25.9375 21 11.719971
26 21 11.129883
26.75 23.5 11.47998
27 24 13.199951
29.4375 29.5 4.6799316
29.5625 30 7.7099609
29.625 31 11.449951
19.75 1 15.629883
20.0625 2 16.75
23.0625 9 9.9799805
25.625 15.5 8.0400391
25.75 16.5 10.919922
27 19.5 10.73999
27.3125 20.5 11.52002
27.625 21.5 13.030029
28.25 23 10.389893
29.6875 26 8.2800293
30.3125 27.5 5.6000977
20.0625 -1.5 16.399902
20.6875 -0.5 13.97998
20.8125 0.5 17.050049
21.1875 1.5 17.330078
22.75 5 12.919922
23.5 6.5 8.6999512
23.9375 7.5 8.9299316
24.875 10.5 11.48999
27.25 16 7.4199219
27.5625 17 8.8601074
30.6875 25.5 9.75
32 28 5.0700684
32.125 29 7.7600098
32.4375 30 8.6499023
21.4375 -1.5 15.879883
21.875 -0.5 15.25
23 3 16.120117
24.5625 6.5 11.790039
25.5625 8.5 9.8798828
25.8125 9.5 11.23999
26.125 10.5 12.570068
28.375 15.5 5.3100586
28.625 16.5 7.4799805
28.75 17 10.469971
29.125 18 10.370117
30.875 22.5 9.4299316
33 28 8.5
33.9375 30.5 6.9799805
23.0625 -1.5 14.689941
23.4375 -0.5 14.850098
26.875 8.5 12.030029
27.1875 9 13.409912
27.8125 10.5 10.649902
28.75 13 9.2900391
30.125 16.5 7.4199219
31.4375 19.5 6.5300293
34 26 5.4399414
34.5625 28 7.8798828
35.4375 30 7.6000977
24.6875 -1.5 14.860107
25 -0.5 16.51001
25.4375 0.5 15.469971
25.875 2 15.100098
26.4375 3 13.179932
27.25 5 13.23999
27.5625 6 14.090088
28.3125 7.5 10.01001
29.9375 12 10.22998
30.1875 12.5 11.860107
30.6875 14 10.780029
31.125 15 10.72998
31.75 16 8.0700684
32.0625 17 8.8601074
35.3125 25 4.6699219
35.75 26 4.8100586
26.0625 -1.5 16.73999
26.375 -0.5 17.889893
26.6875 0.5 18.47998
27.25 2 17.01001
27.875 3 14.22998
28 4 17.550049
28.375 5 17.219971
29 6 14.800049
29.3125 6.5 11.590088
29.625 7.5 12.280029
30.3125 9 9.4299316
30.75 10 8.7700195
31.75 13 11.139893
33.25 16.5 8.4199219
33.8125 18.5 10.850098
38.625 30 3.1999512
38.9375 31.5 8.4899902
27.1875 -1 18.23999
27.25 -1 17.26001
27.4375 -0.5 19.52002
28.0625 1 17.300049
28.75 2.5 14.040039
28.9375 3 16.22998
29.8125 5.5 15.26001
32.875 12.5 8.1999512
34.5625 17 7.5100098
35.3125 19 7.8601074
35.625 20 8.9799805
36.4375 22 8.8500977
39.5625 30 6.0800781
39.8125 30.5 7.6201172
40 31.5 9.8200684
29.1875 0 16.22998
30.3125 2.5 12.560059
30.5625 3 14.159912
31.0625 4.5 13.449951
31.25 5 16.090088
31.625 6 16.129883
32.0625 7.5 15.52002
32.625 8.5 13.820068
33.9375 11.5 8.2099609
34.375 12.5 8
35.75 16 6.5100098
35.9375 16.5 8.7399902
36.1875 17.5 10.01001
36.625 18.5 9.6699219
37.25 20 7.3200684
37.5 21 8.8601074
37.75 21.5 10.820068
39.25 25 7.5400391
39.25 26 11.689941
39.6875 26 7.6298828
40.375 29 12.77002
30.5 -1.5 15.820068
31.5625 1.5 17.899902
32.5625 4 15.040039
32.875 5 16.52002
33.25 6 16.48999
33.8125 7 14.550049
34.9375 9.5 11.459961
35.3125 10.5 11.800049
35.75 12 11.310059
36.6875 14 10
38.125 17.5 7.2600098
38.375 18.5 8.9599609
38.9375 19.5 7.6899414
39.125 20.5 9.7900391
40.125 23 8.0400391
40.1875 23.5 11.48999
40.8125 25 8.9699707
40.75 25 13.969971
40.875 26 16.929932
41.25 27 17.060059
42.9375 30 4.1398926
43 30 7.9899902
32.0625 -1 15.179932
32.25 -0.5 17.949951
33.25 2 15.139893
34.6875 5.5 13.090088
35 6.5 13.620117
35.8125 8.5 13.550049
36.125 9.5 14.459961
37.5625 13 12.169922
37.5625 13 11.860107
38.375 14.5 7.8400879
39.25 16.5 7.3701172
39.5 17.5 8.9599609
40 19 12.350098
40.875 21.5 11.379883
41.125 22 12.889893
41.1875 23 16.399902
42.6875 26 9.6999512
44.125 29.5 7.4299316
34.0625 1 14.830078
35.5625 5 16.23999
36.0625 6 14.469971
36.5 7 14.050049
37.5625 9.5 11.800049
38 10.5 11.179932
38.625 12 9.0300293
38.75 12.5 11.75
39.5 14 8.1499023
40 15.5 6.9599609
40.1875 16 9.3100586
40.375 17 12.02002
40.5625 17.5 13.97998
41.1875 19 11.909912
41.9375 20.5 8.2800293
41.5625 20.5 15.889893
41.9375 21.5 16.310059
42.625 23.5 17.560059
44.75 28 8.6799316
45.0625 29 9.6000977
34.3125 -2 17.22998
35.875 1 8.8500977
37.1875 5 11.709961
37.625 6 11.26001
38.375 7.5 7.7399902
38.75 8.5 7.8898926
39.6875 11 6.5800781
39.875 11.5 8.9299316
41.3125 15 6.6699219
42.875 19 7.3500977
43.25 20 7.5100098
42.875 20 15.47998
43.1875 21 16.649902
43.8125 22.5 14.449951
45 24.5 6.4199219
45.25 25.5 8.1899414
45.75 27 11.219971
36.75 -1 12.830078
37.6875 1.5 11.01001
37.8125 2 14.149902
38.5625 4 10.51001
38.6875 4.5 13.790039
38.9375 5.5 15.050049
41.375 10.5 6.3798828
42.1875 12.5 6.0700684
42.4375 13.5 7.7800293
42.75 14.5 9.1398926
43.5 16.5 10.01001
43.75 17.5 11.159912
44.4375 19.5 12.610107
46 22.5 5.1899414
46.1875 23 7.4399414
46.5 24 7.9899902
46.8125 25 9.3798828
46.875 26 12.290039
38.25 -0.5 18.48999
38.625 0.5 18.610107
39.6875 3 15.800049
40.8125 5 7.7299805
41.1875 6 8.2299805
44.0625 13.5 8.0100098
45 16 10.699951
47.0625 21 6.6101074
47.4375 22 6.6000977
39.6875 -1 12.840088
39.625 -0.5 17.790039
40.125 0.5 16.610107
41.1875 3 13.709961
43.25 7.5 8.5900879
44.75 12 10.030029
45.25 13 9.3798828
45.625 14 9.4799805
45.9375 15 10.790039
47.3125 18 4.75
