# .PCD v0.7 - Point Cloud Data file format
VERSION 0.7
FIELDS x y z
SIZE 4 4 4
TYPE F F F
COUNT 1 1 1
WIDTH 2358
HEIGHT 1
VIEWPOINT 0 0 0 1 0 0 0
POINTS 2358
DATA ascii
39.5 27 -2782.4299
21 2.5 -2779.8999
9.5625 16 -2784.0801
30.625 2.5 -2780.48
27.3125 28 -2784.73
39.75 28 -2780.96
17.8125 21 -2779.8401
10.8125 19.5 -2785.0701
31.0625 3.5 -2779.52
25.625 13 -2788.3501
28.25 30 -2785.96
18.75 24 -2777.3601
40.625 29.5 -2786.28
11.0625 20.5 -2782.49
31.5 4.5 -2778.78
28.625 21 -2782.73
28.125 30.5 -2780.53
19.1875 25 -2779.6799
30.625 -0.5 -2780.3799
12.75 26 -2777.3201
31.9375 6 -2778.3
17.25 -1.5 -2780.2
19.625 26 -2782.9099
29.875 24 -2784.26
31.5625 2.5 -2777.1001
32.375 7 -2778.02
13.375 28.5 -2775.24
17.8125 0.5 -2777.6001
32.0625 3.5 -2778.3
30.3125 25 -2784.5
20.625 29 -2781.1101
34.3125 10.5 -2786.9199
14.1875 29.5 -2780.29
20 5.5 -2783.78
32.5 4.5 -2779.75
12.1875 -1.5 -2780.6799
20.625 -1.5 -2780.8701
37.875 19.5 -2785.3799
14.5625 30.5 -2780.0701
21.5 9.5 -2781.9099
33.3125 7 -2779.51
13.5625 3 -2781.2
21.5 1 -2778.29
40.3125 26 -2779.0601
4.25 -1 -2781.4099
22.25 11 -2785.8201
33.6875 8 -2778.8401
15.9375 10.5 -2778.97
40.6875 27.5 -2776.3
21.875 2 -2780.1499
5.375 1 -2787.1001
23.0625 13 -2785.75
34.1875 9 -2780.8101
40.6875 27.5 -2777.3101
16.3125 11.5 -2779.24
24 6.5 -2785.53
6.3125 4.5 -2782.54
23.75 14.5 -2788.6399
41.375 28 -2783.6201
16.6875 12.5 -2780.76
34.8125 10 -2784.1201
25.75 20.5 -2783.45
17.625 16.5 -2774.6699
31.625 1.5 -2776.6799
9.125 12 -2782.28
24.8125 8.5 -2785.75
25.9375 21 -2780.6499
17.9375 17.5 -2774.49
35.0625 11 -2782.6001
32.0625 2.5 -2777.3201
26.9375 14 -2786.25
9.4375 13.5 -2781.1899
18.3125 18.5 -2774.6101
35.125 11 -2782.8101
26 21 -2781.24
9.8125 14.5 -2780.29
27.375 15 -2787.29
33 4.5 -2779.4199
18.6875 19.5 -2775.6399
37.6875 18 -2785.6299
26.75 23.5 -2780.6899
33.375 6 -2777.9399
10.5625 15 -2785.6001
28.25 17.5 -2781.48
38.0625 19 -2785.52
19.0625 20.5 -2777.51
27 24 -2778.79
12.375 21 -2781.8601
35.6875 11 -2782.2
29.0625 19.5 -2784.8799
38.375 20 -2784.28
19.4375 21 -2780.2
29.4375 29.5 -2786.79
12.5625 22 -2779.04
36.1875 12 -2784.1899
30.375 23 -2783.74
40.0625 26 -2776.24
29.5625 30 -2783.76
13.0625 23 -2780.8501
19.75 22.5 -2778.98
36.6875 13 -2786.72
31.625 25.5 -2785.71
40.5 27 -2776.1399
29.625 31 -2780.02
37.0625 14 -2783.5601
13.8125 26.5 -2774.54
20.1875 23 -2780.47
33.75 31 -2785.1399
41.4375 28.5 -2782.6399
19.75 1 -2779.1899
37.5625 15 -2786.0701
25.125 6.5 -2781.6799
20.0625 2 -2777.9199
14.25 27.5 -2774.74
20.5625 24 -2782.2
32.0625 -1.5 -2780.1599
38.4375 17 -2785.48
25.9375 8 -2784.21
23.0625 9 -2783.9099
34.5 5 -2781.72
38.5 17 -2785.8999
21.125 27 -2776.6699
14.9375 28.5 -2777.8999
25.625 15.5 -2785.27
28.5 14 -2786.3999
36 9.5 -2780.6899
39.3125 19.5 -2785.3799
15.5 31 -2775.0801
25.75 16.5 -2782.3201
21.5625 27.5 -2779.3301
30.625 19.5 -2785.9399
36.25 10.5 -2778.78
40.0625 22 -2779.71
4.5 -1.5 -2776.8701
27 19.5 -2782.1799
21.9375 28.5 -2781.51
31.0625 21 -2782.6599
40.5625 23 -2781.0901
36.875 11.5 -2781.8899
8.4375 8 -2782.1499
27.3125 20.5 -2780.9099
31.5 22 -2783.1299
22.25 29.5 -2778.9199
41.0625 24 -2783.4399
9.0625 9 -2785.5601
37.3125 13 -2782.23
27.625 21.5 -2779.27
34 28.5 -2783.22
13.625 -0.5 -2777.72
41.3125 25 -2778.49
9.4375 10 -2784.95
39 17 -2784.3201
28.25 23 -2781.71
35.3125 31.5 -2785.79
14 0.5 -2780.0701
41.875 26 -2781.29
9.9375 11 -2786.22
39.9375 19.5 -2785.8401
29.6875 26 -2783.49
14.625 3 -2778.0601
23.5 -1.5 -2780.6001
42.3125 27.5 -2780.24
11.125 15.5 -2779.8701
40.5 21.5 -2782.95
30.3125 27.5 -2786.01
24.3125 1 -2779.6101
15.75 5.5 -2779.5901
42.75 28.5 -2780.9299
12.4375 19 -2781.28
20.0625 -1.5 -2778.8
41.25 24.5 -2777.7
25.1875 3 -2779.5701
16.0625 7 -2779.25
32.125 -2 -2780.3501
13 20 -2783.54
20.6875 -0.5 -2781.22
41.9375 25.5 -2781.3101
27.6875 9 -2780.55
17 10.5 -2775.9299
32.5 -0.5 -2777.02
13.0625 21 -2778.55
20.8125 0.5 -2777.72
42.3125 27 -2780.71
17.4375 11 -2778.01
29.375 13 -2784.1101
21.1875 1.5 -2777.52
35.25 5.5 -2781.4099
13.9375 23 -2779.76
43.75 30 -2783.3101
29.8125 14 -2784.26
17.8125 12 -2781.6699
36.9375 10 -2779.53
22.75 5 -2781.5
14.5625 24 -2782.3401
33.25 -2 -2777.5901
30.25 15 -2785.02
19.1875 16.5 -2778.4399
37.4375 11 -2781.98
23.5 6.5 -2785.71
15.1875 27.5 -2774.74
35.625 4.5 -2778.6499
32.375 20.5 -2783.3301
38.375 13 -2782.3501
19.8125 19 -2777.49
23.9375 7.5 -2785.29
16.125 30 -2775.95
37.3125 8 -2785.23
20.1875 20 -2776.6699
38.875 14 -2785.0701
33.625 23.5 -2784.96
24.875 10.5 -2782.3501
5.5625 -1.5 -2777.48
27.25 16 -2785.74
20.5625 21 -2777.9099
37.875 10 -2782.51
40.125 17.5 -2781.3201
34.5 25.5 -2786.4399
6.25 -0.5 -2782.26
27.5625 17 -2784.03
21.5 22 -2787.49
40.5 18.5 -2780.96
38.6875 12.5 -2782.78
24.5625 -2 -2780.9299
6.875 2 -2779.3101
30.6875 25.5 -2782.0801
21.9375 25 -2779.1499
39 13.5 -2781.98
41 19.5 -2782.4299
32 28 -2786.3
25.4375 0.5 -2779.54
11 14 -2774.8601
22.1875 26.5 -2774.5801
40.1875 16.5 -2781.6399
41.3125 21 -2778.3799
32.125 29 -2783.54
25.8125 1.5 -2780.24
13.75 20 -2779.3899
22.625 27 -2777.0901
40.5 17.5 -2780.7
41.6875 22 -2775.1399
32.4375 30 -2782.74
13.875 21.5 -2775.27
26.25 2 -2782.3
22.9375 28.5 -2776.5901
41.5 20.5 -2778.3201
42.1875 23 -2776.8601
21.4375 -1.5 -2779.3201
41.75 21.5 -2776.6201
15.1875 23.5 -2782.3899
26.6875 3.5 -2781.6299
23.6875 30 -2778.8201
42.625 24.5 -2776.6201
21.875 -0.5 -2779.95
16 25.5 -2782.8401
27.125 4.5 -2781.3799
42.125 22.5 -2776.1101
23 3 -2778.6101
43.3125 25 -2783.8899
24.125 31 -2783.05
27.5 6 -2780.01
42.5625 24 -2776.72
18.4375 31 -2787.96
44.9375 29.5 -2780.01
14.4375 -1 -2777.72
24.5625 6.5 -2782.49
27.9375 6.5 -2782.6599
44.75 29 -2783.79
14.8125 0 -2779.6499
25.5625 8.5 -2784.3401
29.1875 9.5 -2784.71
9.6875 5 -2782.96
45.4375 30.5 -2781.6499
30.5 13 -2781.3899
15.4375 2.5 -2776.24
25.8125 9.5 -2782.73
10.8125 8 -2781.6499
40.8125 15.5 -2786.6299
31.75 16 -2784.6299
37.875 6.5 -2783.52
15.875 3 -2780.04
32.1875 17 -2783.99
38.5 8 -2786.5801
41.125 17 -2782.0901
26.125 10.5 -2781.21
11.1875 9 -2780.95
16.25 4 -2780.1001
41.5625 18 -2781.52
11.5 10.5 -2780.1399
28.375 15.5 -2787.99
32.5625 18 -2784.8301
16.5 5.5 -2777.8101
39.4375 10 -2788.8799
42.375 20 -2780.21
13.0625 15 -2779.55
28.625 16.5 -2785.76
36 26.5 -2783.6499
17.9375 9.5 -2777.8501
41.3125 15.5 -2787.53
42.6875 21.5 -2775.3701
14.25 18 -2778.3799
28.75 17 -2782.48
25.375 -1.5 -2777.6299
18.3125 10 -2780.8701
42.1875 18.5 -2783.76
43.125 22.5 -2775.3101
18.0625 26.5 -2786.1699
29.125 18 -2782.3799
25.8125 -0.5 -2778.54
18.625 11.5 -2779.95
42.75 19.5 -2785.6101
43.8125 23 -2783.25
19 30 -2781.75
30.875 22.5 -2782.8101
26.6875 1.5 -2778.0901
20.75 17.5 -2781.01
45.25 26.5 -2785.3701
42.8125 21 -2775.9399
8.3125 -1.5 -2780.26
27.0625 2 -2781.6399
33 28 -2782.8999
22.1875 21.5 -2783.3701
43.0625 22 -2774.5701
35.25 -0.5 -2784.76
8.625 0 -2778.8201
22.6875 24.5 -2776.1299
27.5 3.5 -2779.6201
33.9375 30.5 -2784.3601
44.1875 24 -2783.1001
38.4375 7 -2786.6499
10.3125 4 -2779.55
23 26 -2773.03
28.3125 6 -2778.9399
23.0625 -1.5 -2780.6101
45.5625 28 -2780.29
38.875 8 -2786.71
12.1875 9.5 -2777.5801
23.375 27 -2774.1899
28.75 6.5 -2781.8501
23.4375 -0.5 -2780.4399
36.4375 -1.5 -2784.0601
41.5625 14.5 -2787.8
14.75 16 -2779.77
23.75 28 -2776.1799
26.875 8.5 -2782.1299
29.125 7.5 -2782.9299
42 15.5 -2786.4399
15.6875 19.5 -2775.71
38.5625 4.5 -2781.3701
24.25 28.5 -2780.71
27.1875 9 -2780.5701
31.6875 14 -2782.3601
43.625 20.5 -2781.5801
42.5 14.5 -2786.0801
16.875 2 -2778.96
17.9375 24.5 -2778.96
27.8125 10.5 -2783.0601
32.5625 15.5 -2784.3899
44 21.5 -2779.77
28.75 13 -2784.1101
43.125 16.5 -2784.54
17.9375 5 -2781.02
44.5 22.5 -2781.3401
34.6875 21 -2785.8799
19.1875 26.5 -2785.1001
30.125 16.5 -2785.6499
18.375 6 -2784.04
44.125 20 -2781.5701
45.5 24.5 -2785.5701
20.1875 30 -2781.2
31.4375 19.5 -2785.8401
27.1875 0.5 -2776.8101
21.375 16 -2778.76
46.1875 25.5 -2782.9399
45.875 25.5 -2781.71
9.5 0 -2777.3501
34 26 -2786.25
27.625 1 -2778.1899
22.5 19 -2781.51
46.25 26 -2778.77
46.3125 27 -2782.1201
9.875 1 -2777.52
34.5625 28 -2783.54
24.5 25.5 -2779.4399
28.5 3.5 -2776.77
46.75 27 -2779.4299
46.75 28 -2782.1299
10.1875 2 -2775.75
35.4375 30 -2783.71
24.875 26.5 -2780.3201
38.9375 5 -2779.95
29.3125 5 -2779.53
47.3125 28.5 -2781.7
10.75 3 -2778.6399
24.6875 -1.5 -2780.48
25.1875 28 -2778.28
30.125 7 -2781.8
39.4375 6 -2781.74
25 -0.5 -2778.8301
37.9375 -1.5 -2779.3
13 8.5 -2782.95
25.625 28.5 -2782.73
30.5 8 -2782.8701
46.625 23.5 -2784.9199
25.4375 0.5 -2779.46
38.375 0 -2780.3301
13.8125 10.5 -2782.8301
26.0625 29 -2784.4199
30.9375 9 -2784.1399
47.0625 24.5 -2783.78
25.875 2 -2779.78
38.5 0.5 -2776.6299
16.125 17 -2780.4199
35.1875 19.5 -2784.22
17.75 1 -2776.1201
26.4375 3 -2781.55
47.3125 26 -2778.3401
38.875 1.5 -2776.3701
17.1875 20.5 -2777.98
36.875 23.5 -2786.48
18.5 2.5 -2780.04
27.25 5 -2781.24
38 -1 -2779.8301
39.5 3 -2779.3501
18.25 22.5 -2782.25
28.1875 -1.5 -2778.1899
27.5625 6 -2780.24
19.625 5 -2783.98
38.375 0 -2776.6499
40.8125 5.5 -2787.3301
10.0625 -1 -2774.5
28.3125 7.5 -2784.1799
38.8125 1 -2776.45
21 9.5 -2782.04
28.625 -0.5 -2779.8701
10.75 0 -2778.95
43.4375 13 -2784.6599
29.9375 12 -2783.26
39.3125 2 -2778.02
23.9375 17.5 -2788.8999
29 0.5 -2779.8201
11.125 1 -2778.98
43.75 14 -2783.75
30.1875 12.5 -2781.8101
39.75 3 -2779.47
30.3125 3.5 -2780.71
46.875 22 -2787.76
25.1875 22.5 -2782.96
12.4375 3 -2786.98
41.75 7 -2787.3899
30.6875 14 -2782.54
30.75 5 -2778.21
47 23 -2784.8701
12.8125 5.5 -2780.55
26.1875 25.5 -2782.49
47.0625 20 -2786.21
31.125 15 -2782.3999
31.125 6 -2778.26
47.375 24 -2784.3799
13.1875 6.5 -2780.1499
39.4375 -1 -2779.3
27.3125 28.5 -2785.77
31.5625 7 -2780.05
31.75 16 -2784.8899
47.75 25 -2784.1001
13.5625 7.5 -2779.8899
40.25 1.5 -2777.4299
27.5625 30 -2780.9199
32 7.5 -2781.79
32.0625 17 -2783.97
39.5 -0.5 -2779.28
41.25 3 -2781.6499
32.375 9 -2781.47
19.5 2.5 -2777.96
14.3125 10 -2778.45
35.3125 25 -2787.29
39.75 0.5 -2777.1899
33.625 11.5 -2785.55
42.1875 5 -2784.3799
16.75 16 -2778.8601
19.875 3.5 -2779.9399
40.625 2.5 -2778.9399
35.75 26 -2786.9299
34.0625 12.5 -2786.3899
44.8125 11.5 -2784.1699
20.25 4 -2782.8799
16.9375 17.5 -2775.96
26.0625 -1.5 -2778.7
34.5 13.5 -2787.21
41.3125 4 -2783.45
46.125 15 -2782.97
22.75 11 -2785.8799
26.375 -0.5 -2777.55
17.5 18.5 -2777.45
41.875 5 -2785.28
36.1875 18 -2783.4299
46.625 16 -2784.3999
23.0625 12 -2785.1399
26.6875 0.5 -2776.6101
17.875 19.5 -2777.73
23.4375 13 -2786.03
42.3125 6 -2786.29
47.1875 17 -2789.0901
27.25 2 -2777.9399
36.625 19 -2783.71
19 21.5 -2782.1299
47.5625 18 -2786.29
45.5 15.5 -2781.1899
24.8125 17.5 -2785.03
19.3125 22.5 -2780.6101
39.1875 25.5 -2785
27.875 3 -2780.47
41.0625 0 -2780.3201
28 4 -2776.99
19.3125 22.5 -2780.76
46.5 17.5 -2788.77
26.125 22 -2782.1799
44.5625 9 -2778.5901
39.625 27 -2782.3899
28.375 5 -2777.3201
19.625 24 -2778.79
45.5 11 -2781.01
26.75 24.5 -2779.73
39.625 26.5 -2784.5701
29 6 -2779.3899
20.625 26 -2781.28
43 1 -2782.76
27.25 25 -2784.01
20.9375 27 -2780.49
40 28 -2778.8799
29.3125 6.5 -2782.6001
44.5 4 -2789
21.3125 28 -2779.5
29.875 -2 -2784.72
29.625 7.5 -2781.8201
28.8125 31 -2778.52
46.5 10 -2780.52
31.625 3.5 -2779.1201
30.3125 9 -2784.4399
46.9375 11 -2780.97
11.75 -1 -2782.4299
19.1875 -1.5 -2780.1499
32.0625 5 -2776.1899
30.75 10 -2785.02
46 4.5 -2781.26
12.25 1 -2777.54
19.5 0 -2779.8
32.5 6 -2775.1599
31.75 13 -2782.5
46.4375 5.5 -2780.55
14.4375 6.5 -2780.6101
19.8125 1 -2779.1299
32.875 6.5 -2779.55
33.25 16.5 -2784.6799
47.375 7.5 -2783.48
15.9375 11 -2778.96
20.1875 2 -2777.6899
33.8125 18.5 -2781.99
33.75 8.5 -2780.99
44.625 -1.5 -2777.4299
18.0625 17.5 -2774.47
20.5625 3 -2781.3
38.625 30 -2787.8999
34.5625 10 -2784.1299
45.0625 -0.5 -2777.05
18.5 18.5 -2774.6101
23 10 -2783.3501
38.9375 31.5 -2782.6101
35 11.5 -2782.53
45.625 0 -2782.02
23.75 12 -2784.8999
19.125 19.5 -2777.6399
27.1875 -1 -2777.2
36.25 14 -2785.8601
46.0625 1 -2782.3601
25.5 17.5 -2783.8999
19.5625 20.5 -2778.01
37.9375 18.5 -2785.3201
27.25 -1 -2778.1799
46.875 3.5 -2778.0701
25.875 18 -2785.4199
27.4375 -0.5 -2775.9199
40.5 26 -2774.8701
45.8125 -1.5 -2774.72
20.625 23 -2782.0901
26.4375 21 -2780.25
28.0625 1 -2777.8101
40.9375 27 -2777.22
46.3125 -0.5 -2776.76
21.0625 24 -2781.8401
26.75 22 -2780.51
28.75 2.5 -2780.9099
21.5 26 -2777.22
41.3125 28 -2778
46.8125 0 -2781.27
27.4375 24 -2779.46
28.9375 3 -2778.3101
21.75 27 -2774.8201
41.375 27.5 -2781.53
28.25 26 -2784.5
47.625 2.5 -2776.45
29.8125 5.5 -2779.3
22.5 28 -2779.24
41.8125 28.5 -2783.71
32.875 12.5 -2785.3601
0.25 27 -2785.0701
20 -2 -2778.6201
22.9375 29.5 -2779.54
43.0625 31.5 -2785.6101
34.5625 17 -2785.3999
0.6875 28 -2784.1899
12.1875 -1.5 -2780.72
20.375 -1 -2780.8799
31.625 1 -2777.27
35.3125 19 -2784.77
1.125 30 -2776.29
13.875 2.5 -2781.3101
32.0625 2 -2777.1299
20.6875 0.5 -2777.21
35.625 20 -2783.46
1.5625 31 -2778.3101
15.75 8 -2779.3201
32.4375 3 -2779.3601
36.4375 22 -2783.3701
21.0625 1.5 -2777.98
0.75 24.5 -2781.28
32.875 4 -2779.26
16.125 9 -2778.8301
39.5625 30 -2785.4099
25 12 -2787.23
1.1875 25 -2783.0801
33.3125 5.5 -2778.28
16.9375 11.5 -2779.1499
25.375 13 -2788.26
39.8125 30.5 -2783.8701
2.4375 29.5 -2774.6399
34.125 7.5 -2779.29
18.4375 16 -2776.8101
25.9375 16 -2782.55
40 31.5 -2781.6101
2.875 30.5 -2773.78
35 9 -2782.6899
18.75 17 -2775.8
26.25 17 -2781.25
29.1875 0 -2779
3.25 31.5 -2777.25
35.375 10 -2781.6201
26.6875 17.5 -2784.1201
0.5 19 -2782.49
30.3125 2.5 -2782.46
19.125 18 -2775.3
27.625 21.5 -2779.6299
35.375 10 -2782.03
19.75 19 -2778.28
3.4375 26.5 -2785.6299
30.5625 3 -2780.8999
4.6875 30.5 -2779.99
35.8125 11 -2782.52
31.0625 4.5 -2781.1201
20.625 21 -2779.01
28 22 -2781.99
0.875 17.5 -2777.3899
36.25 12 -2784.27
31.25 5 -2778.3799
21.8125 24.5 -2779.3
29.125 25 -2784.3401
1.6875 19.5 -2778.5701
39.1875 19.5 -2785.3701
31.625 6 -2778.3401
21.875 25.5 -2774.0801
2.9375 21.5 -2786.5
29.4375 26.5 -2783.3799
40.5 23 -2781.24
32.0625 7.5 -2778.5601
22.3125 26.5 -2774.6101
1.8125 17 -2777.6299
40.9375 24 -2783.4199
32.625 8.5 -2780.22
22.8125 27.5 -2775.48
30.25 28 -2787.1101
3.5 20.5 -2782.49
42.1875 27.5 -2780.54
33.9375 11.5 -2785.4199
23.25 28.5 -2776.5
4.75 24 -2780.04
32.0625 -0.5 -2778.28
21.5625 -1.5 -2779.3501
34.375 12.5 -2785.6599
13.3125 0 -2777.74
0.3125 9 -2780.9199
32.5 0.5 -2779.52
35.75 16 -2786.8301
22.625 1.5 -2781.74
13.8125 1 -2779.8501
2.4375 15 -2776.99
32.9375 1.5 -2779.52
35.9375 16.5 -2784.6001
14.5625 3 -2778.8
46.875 18.5 -2788.47
22.9375 3 -2779.9099
3.6875 18 -2779.73
33.375 2.5 -2779.8301
36.1875 17.5 -2783.1399
17.25 10.5 -2776.3501
47.4375 20.5 -2785.6399
23.3125 3.5 -2782.3
35.4375 8 -2780.3999
5.8125 23.5 -2777.22
36.625 18.5 -2782.96
18 11.5 -2781.75
40.75 -1 -2783.24
24.75 7.5 -2784.7
35.875 9 -2780.9299
20.1875 18 -2777.8799
41.125 1 -2777.28
6.25 24.5 -2778.9399
37.25 20 -2785.2
25.375 10 -2781.3201
36.75 11 -2781.8101
20.5625 19 -2777.5601
26.0625 12 -2780.7
43.625 7 -2784.6201
37.5 21 -2783.6599
6.625 24.5 -2784.8799
37.5625 13 -2782.0901
22.5 23.5 -2782.28
26.5 13 -2783.22
0.4375 6 -2773.75
44.5 9 -2785.6799
37.75 21.5 -2781.7
22.5 24.5 -2776.3799
26.875 13.5 -2786.3601
38.8125 16 -2785.3899
0.8125 6.5 -2777.0901
44.8125 11 -2779.53
39.25 25 -2784.8201
22.6875 26 -2773.3899
39.25 17 -2784.1599
27.25 14.5 -2787.52
1.25 7.5 -2777.6001
45.875 13 -2783.1201
39.25 26 -2780.28
23.1875 27 -2774.1101
39.6875 18 -2783.98
1.625 8.5 -2779.77
27.5625 16 -2785.6201
23.75 28 -2776.21
39.6875 26 -2784.3401
46.5625 15.5 -2781.97
41.375 23 -2781.29
28.5625 19 -2784.5901
2.0625 9 -2782.5601
13.9375 -1 -2776.75
40.375 29 -2778.72
42.4375 -0.5 -2783.3
2.5 10 -2783.1499
30.5 -1.5 -2779.8101
41.8125 24 -2781.25
14.4375 0 -2778.55
28.9375 20 -2785.6201
46.625 11.5 -2780.97
4.5625 15.5 -2783.1599
42.25 24.5 -2783.6201
31.5625 1.5 -2777.29
14.875 1 -2779.8201
31.6875 29 -2783.6699
5.4375 18 -2780.74
45.5625 3.5 -2783.8201
32.5625 4 -2779.53
43.5 28 -2783.22
32.4375 31 -2786.3101
5.875 19 -2781.5801
45.75 4.5 -2781.3401
16.125 4 -2780.0801
32.875 5 -2778.05
43.9375 29 -2784.1799
23.6875 1.5 -2779
6.75 21.5 -2777.95
46.125 5.5 -2780.76
33.25 6 -2777.8799
16.375 5 -2777.9399
44.8125 30.5 -2787.29
23.9375 3 -2775.3601
8 24.5 -2779.1499
47.1875 8 -2783.9099
17 6 -2781.1799
33.8125 7 -2779.5901
33 -1.5 -2778.8301
24.3125 4 -2777.74
9.6875 29 -2775.8301
47.3125 8 -2786.21
34.25 2 -2777.03
18 9.5 -2777.8799
10.0625 30.5 -2774.9099
34.9375 9.5 -2782.5901
25.4375 6.5 -2781.4399
44.8125 -1.5 -2777.3601
35.0625 3 -2782.3201
10.5 31 -2778.03
45.1875 -0.5 -2776.6799
35.3125 10.5 -2782.0601
25.8125 7.5 -2782.6001
35.9375 5.5 -2779.3999
19 11.5 -2780.25
0 0.5 -2777.26
35.75 12 -2782.26
21.875 19 -2781.3301
26.1875 8 -2784.1799
45.9375 1 -2781.52
37.1875 8 -2785.3101
0.4375 1.5 -2776.6499
36.6875 14 -2783.3701
23.6875 24.5 -2778
26.5 9.5 -2783.4299
0.8125 2 -2780.0701
46.8125 4 -2777.99
37.625 9.5 -2782.3201
38.125 17.5 -2785.78
25 28 -2778.3101
28.3125 14.5 -2786.5601
1.3125 4 -2775.3301
38.375 18.5 -2784.1001
45.5625 -2 -2774.5901
38 10.5 -2782.6299
28.875 17 -2782.1499
15.875 0 -2782.3201
2.9375 7.5 -2780.05
38.9375 19.5 -2785.3701
29.25 18 -2783.1599
38.875 13 -2782.04
46 -1 -2775.25
3.375 9 -2777.52
16.5 2 -2779.1101
39.125 20.5 -2783.0701
30 20 -2785.9199
3.75 10 -2779.04
47.0625 1.5 -2779.4199
39.3125 13.5 -2784.9399
30.6875 22 -2783.24
40.125 23 -2784.49
17.875 5.5 -2780.97
4.1875 10.5 -2781.4299
18.5 6 -2784.75
47.625 3.5 -2776.3999
40.125 15.5 -2786.73
40.1875 23.5 -2781.04
5.875 14.5 -2782.8201
33.125 29.5 -2783.98
19.1875 8.5 -2782.71
47.25 -1.5 -2776.8
41 18 -2781.4299
40.8125 25 -2783.47
7.125 17.5 -2786.78
23.6875 -1 -2780.5901
19.75 11 -2778.46
41.875 21 -2776.6799
1 31.5 -2782.6001
40.75 25 -2778.47
8.875 23 -2776.8501
20.625 13 -2780.0801
24.625 2.5 -2775.8101
42.25 22.5 -2773.5901
1.3125 27 -2787.95
40.875 26 -2775.51
21.375 15 -2779.0701
11.375 29.5 -2776.4299
43.5625 24.5 -2783.7
27.1875 9 -2782.4299
41.25 27 -2774.6399
1.5 28 -2785.8201
22.25 17 -2779.46
11.8125 30 -2778.28
44.8125 27.5 -2783.1799
27.5 10 -2783.0701
42.9375 30 -2787.0901
1.8125 29 -2784.6899
25.375 25 -2783.45
46.125 30.5 -2784.9299
1.375 1 -2775.1399
27.875 11 -2783.8601
43 30 -2783.1101
1.75 29.5 -2779.1201
26.1875 27 -2782.96
35.875 2 -2783.0801
1.75 1.5 -2778.27
28.5625 13 -2784.3101
32.0625 -1 -2779.9199
1.6875 30 -2774.05
36.75 4 -2782.8401
15.9375 -1.5 -2779.0701
2.125 2 -2783.1201
28.9375 14 -2785.74
32.25 -0.5 -2777.1499
2.0625 31 -2774.21
16.6875 0.5 -2778.4199
38 7 -2785.9399
3.0625 5.5 -2772.75
29.625 16 -2785.55
33.25 2 -2779.77
0 20 -2787.73
20 9 -2778.8401
38.375 8 -2786.5901
3.5 7 -2771.03
34.6875 5.5 -2781.47
30.3125 18.5 -2785.5801
0.5625 23 -2775.46
21 11 -2782.6399
38.8125 9 -2787.5
3.875 7.5 -2772.54
35 6.5 -2780.79
2.3125 26.5 -2785.6201
22.125 14.5 -2781.03
30.6875 19.5 -2786.03
4.25 8 -2777.1399
35.8125 8.5 -2780.6299
39.25 9.5 -2788.7
2.75 27.5 -2786.3301
22.6875 17 -2776.8601
4.6875 8.5 -2780.1001
31.9375 24.5 -2780.25
40.125 12.5 -2784.73
36.125 9.5 -2779.5601
3 29 -2779.9199
33.75 29.5 -2783.71
37.5625 13 -2781.3501
5.0625 10 -2780.3701
24.6875 21 -2782.45
43.9375 22.5 -2781.3
3.25 30 -2778.3899
37.5625 13 -2781.6599
34.125 30.5 -2784.3999
9.3125 20 -2784.4299
44.375 23 -2783.3101
26.3125 25.5 -2782.6799
3.25 30.5 -2774.1299
38.375 14.5 -2785.6799
24.4375 -1.5 -2780.9199
11.875 27 -2780.27
44.8125 24 -2786.1001
0.8125 19 -2782.27
24.75 -0.5 -2780.3201
26.875 26.5 -2783.9099
12.25 29 -2774.6201
39.25 16.5 -2786.1699
46.0625 28 -2779.7
39.5 17.5 -2784.0801
28.1875 31 -2779.71
12.6875 29.5 -2775.53
24.75 -0.5 -2780.46
46.9375 29.5 -2785.8
40 19 -2780.6599
16.625 -1 -2778.1299
13.125 30 -2780.0601
38.5 6 -2781.46
1.3125 20 -2783.3501
40.875 21.5 -2781.45
25.125 0.5 -2779.5901
17 0 -2778.3899
1.8125 -2 -2778.6299
38.875 6.5 -2785.71
1.625 21 -2782.3501
41.125 22 -2779.78
26.5 4.5 -2781.6201
17.3125 1 -2776.5801
2.25 -1 -2779.3999
39.75 8.5 -2786.8401
2.8125 23.5 -2786.74
41.1875 23 -2776.1201
27.5625 8 -2782.1101
17.9375 2 -2780.22
5.625 7.5 -2779.98
3.8125 26.5 -2783.8799
41.4375 13 -2788.29
42.6875 26 -2782.45
27.875 9 -2780.46
25.3125 21.5 -2780.8601
6 9 -2780.0801
4.8125 29.5 -2781.6201
41.875 14 -2788.48
44.125 29.5 -2783.8999
6.4375 9.5 -2782
28.25 10 -2782.46
26.625 25 -2781.5
0.9375 14.5 -2782.0601
42.3125 15 -2786.3301
34.0625 1 -2780.3999
7.3125 12.5 -2778.23
28.625 30 -2781.5801
1.125 15.5 -2779.25
29.3125 13 -2783.8799
42.75 16.5 -2783.8201
35.5625 5 -2778.3201
9.375 17 -2784.0901
28.8125 31.5 -2778.23
1.25 15.5 -2780.98
30 15 -2784.45
36.0625 6 -2780.1699
11.0625 21.5 -2783.0601
43.125 17.5 -2783.55
17.25 -2 -2779.8601
1.3125 16 -2776.98
36.5 7 -2780.24
30.6875 17 -2782.98
12.75 26.5 -2777.3201
18.875 2.5 -2779.77
44.875 22 -2781.51
2.875 20 -2780.8401
31.75 20 -2785.1399
37.5625 9.5 -2782.26
13.1875 28 -2773.76
22.5 10.5 -2785.8799
45.6875 23.5 -2786.27
4.125 23 -2781.03
38 10.5 -2782.76
13.625 28.5 -2775.27
32.125 21.5 -2784.8201
22.875 12 -2785.71
46.125 25 -2782.02
38.625 12 -2784.54
4.375 24 -2779.6499
13.625 28.5 -2776.1201
34.1875 28 -2784.46
46.125 25 -2783.1399
23.3125 13 -2785.77
38.75 12.5 -2781.8201
4.9375 25 -2781.27
14.0625 29 -2780.23
46.9375 27.5 -2780.05
24.5 16 -2785.5601
39.5 14 -2785.53
34.5625 28.5 -2786.52
6.75 30 -2783.0701
47.375 28.5 -2782.26
14.4375 30 -2780.1499
25.875 20.5 -2781.48
40 15.5 -2786.5901
6.9375 30.5 -2780.95
35.1875 31 -2782.6599
36.4375 -2 -2783.8501
3.75 -1 -2779.45
26.25 22 -2780.3899
40.1875 16 -2784.27
7.25 31.5 -2779.9299
25.5 -1.5 -2777.6699
37.75 1 -2784.79
4.125 0 -2781.49
26.75 23 -2782.52
2.375 14 -2783.6001
40.375 17 -2781.3301
25.5 -2 -2778.6299
4.5 1 -2783.1201
39.4375 6 -2781.51
27.5 25 -2780.95
4.875 1 -2787.79
2.6875 15.5 -2778.26
40.5625 17.5 -2779.3701
44.125 17.5 -2782.54
28.125 26 -2784.49
26.1875 0.5 -2778.5901
5.8125 5 -2778.7
3.4375 17 -2782.3501
41.1875 19 -2781.1799
29.5625 29 -2786.76
45 20 -2780.8899
26.5 1.5 -2778.22
6.3125 6.5 -2774.9399
3.875 18 -2782.3
46.6875 23.5 -2784.8301
41.9375 20.5 -2784.8101
18.3125 -1.5 -2778.03
26.9375 2 -2781.3999
4.75 20 -2787.6899
7.875 9 -2785.8999
47.125 25 -2780
19.25 0.5 -2780.46
41.5625 20.5 -2777.2
4.875 21 -2780.0801
27.25 3.5 -2779.6799
10.0625 15 -2782.05
37.8125 -1.5 -2779.1899
19.9375 2.5 -2778.0601
41.9375 21.5 -2776.6899
5.3125 22 -2780.23
27.5625 4.5 -2778.8899
10.4375 15.5 -2785.76
38.25 0 -2776.6899
5.5 23 -2777.6001
27.9375 5.5 -2780.1699
42.625 23.5 -2775.0601
10.875 17 -2781.99
22.8125 9 -2784.8501
44.75 28 -2782.9099
13 22.5 -2781.6399
5.875 24 -2776.99
39.125 2 -2777.96
28.6875 7 -2783.24
23.125 10 -2783.5901
45.0625 29 -2781.73
13.4375 24 -2780.5
8.5 30 -2783.3799
39.5 2.5 -2779.46
30.375 12.5 -2781.74
34.3125 -2 -2778.22
24.125 12 -2786.6299
13.8125 25.5 -2776.3301
8.6875 31 -2781.04
40.75 5 -2787.1399
30.75 13.5 -2782.7
35.875 1 -2786.4199
25.25 15.5 -2784.6599
14.25 27 -2774.26
45 16 -2782.5701
31.0625 14.5 -2782.6299
0 4.5 -2780.77
37.1875 5 -2782.97
25.5 16.5 -2782.52
14.6875 28 -2774.77
32.8125 20 -2782.1001
40.3125 1.5 -2780.24
0.25 6 -2773.76
37.625 6 -2783.3799
15.125 28.5 -2777.6799
26 17.5 -2783.5701
33.9375 23 -2786.03
41.125 3 -2783.79
0.9375 7 -2777.1299
38.375 7.5 -2786.78
15.5 29.5 -2778.4099
26.75 20 -2781.77
35.25 27.5 -2782.7
38.75 8.5 -2786.4099
1.5 8.5 -2779.7
42.4375 6 -2786.27
15.9375 31 -2775.1299
26.9375 21 -2779.1799
35.625 28.5 -2784.72
39.6875 11 -2787.49
2.1875 10 -2783.1399
16.375 31.5 -2779.05
44.5625 11.5 -2784.1699
36.1875 31 -2780.1101
27.4375 22 -2779.8999
2.625 11 -2783.28
39.875 11.5 -2785.1399
45.375 13.5 -2785.3999
16.8125 31.5 -2788.3601
26.8125 -1 -2776.8899
27.5625 22 -2782.05
2.5625 11.5 -2777.6599
41.3125 15 -2786.8501
45.8125 15 -2782.78
4.9375 -1 -2781.3799
27.1875 0.5 -2775.9299
28 23 -2781.96
4.8125 16.5 -2785.26
42.875 19 -2785.74
46.6875 16.5 -2786.6599
8.75 9 -2781.76
27.1875 0.5 -2776.3701
29.3125 26 -2783.54
4.8125 17 -2780.5601
43.25 20 -2785.4099
47.125 17.5 -2788.79
9.125 10 -2782.3401
27.5 1.5 -2776.8701
30.875 30.5 -2782.3301
5.25 18 -2780.8401
42.875 20 -2777.6101
28.5625 4.5 -2777.48
10.875 15 -2776.95
5.75 19.5 -2782.0901
41.25 1.5 -2780.3899
19.375 -1.5 -2779.5601
43.1875 21 -2776.1299
28.9375 5.5 -2778.9199
11.25 15.5 -2779.8899
41.6875 2 -2782.8501
6.0625 21 -2776.5601
43.8125 22.5 -2778.25
20.125 1 -2778.26
29.625 7 -2781.6699
12.5625 18.5 -2782.98
45.125 11 -2779.75
6.625 22 -2777.96
45 24.5 -2785.8301
30 8 -2783.0801
13.8125 22.5 -2776.77
21.125 3 -2781.3501
46.8125 15 -2782.0601
9.1875 28.5 -2779.3101
45.25 25.5 -2783.8
22.75 6 -2788.27
14.25 23 -2779.74
30.375 9 -2784.27
47.1875 16 -2784.6599
9.4375 29.5 -2777.3999
45.75 27 -2780.5701
24.75 11.5 -2787.0801
15.5 26 -2782.7
30.75 10 -2785.1599
47.625 16.5 -2787.05
36.75 -1 -2782.6201
9.8125 30.5 -2777.55
27 18 -2783.6599
15.9375 27.5 -2779.02
31.75 13.5 -2782.28
41.5 -0.5 -2779.72
37.6875 1.5 -2784.3
29.875 25.5 -2783.55
0.0625 1 -2777.02
16.3125 28.5 -2779.46
37.8125 2 -2781.04
32.0625 14 -2783.47
42.6875 2 -2784.2
20.1875 -1 -2780.9299
17.1875 31 -2778.1399
38.5625 4 -2784.4299
0.4375 2 -2776.0901
33.125 17.5 -2783.7
44.4375 6.5 -2781.8401
20.4375 0 -2777.51
5.625 -1.5 -2777.6001
38.6875 4.5 -2781.1499
44.875 7.5 -2782.6001
2.125 6 -2776.8999
20.8125 1 -2777.7
6 -1 -2781.99
33.8125 19.5 -2783.8
38.9375 5.5 -2779.8899
46.125 11 -2779.27
26.9375 16 -2784.1001
3.125 8.5 -2780.1299
41.375 10.5 -2787.74
6.4375 0 -2783.0601
42.3125 -1.5 -2778.5901
34.5625 21.5 -2786.9099
27.3125 17 -2783.79
43.9375 1.5 -2787.55
27.6875 18.5 -2783.3601
42.1875 12.5 -2787.73
6.875 1.5 -2779.8
3.25 8.5 -2781.3101
36.25 27 -2784.71
44.75 3.5 -2788.8
42.4375 13.5 -2785.9199
28.0625 19.5 -2782.8
37.3125 30 -2784.01
3.3125 9.5 -2777.3
8.1875 5 -2779.6899
45.6875 6 -2783.52
42.75 14.5 -2784.5601
31.5625 28 -2784.96
8.5625 5.5 -2781.99
37.75 31 -2787.3201
4.0625 11 -2781.1201
47.375 10 -2786.6201
43.5 16.5 -2783.6201
32.8125 31.5 -2785.8899
27.5625 -1.5 -2778.1101
9.875 9 -2780.1599
5.75 15 -2782.45
43.5625 -2 -2781.3401
43.75 17.5 -2782.25
21 -1 -2779.6799
27.9375 0 -2777.24
44.4375 19.5 -2780.46
6.1875 16 -2782.45
14.5 21.5 -2775.5901
21.3125 0.5 -2777.3301
46.5625 5.5 -2780.7
28.25 1 -2777.8101
46 22.5 -2787.3799
7.3125 19 -2781.3601
21.8125 1.5 -2779.8201
16.625 25.5 -2784.6599
46.9375 6.5 -2784.0801
28.625 1.5 -2781.1201
46.1875 23 -2785.1299
8.4375 22.5 -2780.0801
22.3125 2.5 -2781.49
18.3125 30 -2784.1201
45.1875 0 -2776.3999
46.5 24 -2784.26
8.5 23 -2776.3601
29.625 5 -2779.05
24.1875 6.5 -2785.4399
18.75 30.5 -2788.1599
45.5625 0.5 -2780.6299
46.8125 25 -2782.8701
10.625 28 -2781.5
24.5625 7.5 -2784.8201
30.0625 5.5 -2782.2
9.9375 5 -2783.0601
45.5 0 -2781.96
46.875 26 -2779.5
10.875 29 -2775.4299
11.25 8.5 -2781.8401
38.25 -0.5 -2777.3799
25 8.5 -2785.8501
30.75 7.5 -2782.6699
46.375 2.5 -2780.3
11.25 30 -2774.97
11.6875 10 -2778.6299
25.25 10 -2781.8401
38.625 0.5 -2776.6799
46.8125 4 -2779
31.125 8.5 -2784.28
1.375 -1.5 -2786.73
13.75 15.5 -2777.5
39.6875 3 -2779.3501
27.125 14 -2786.26
47.25 5 -2779.71
32.1875 11.5 -2786.3899
1.25 -1 -2780.1201
14.1875 16 -2781.3601
40.8125 5 -2787.1699
45.9375 -1 -2775.1799
28.0625 17.5 -2781.55
3.5 5 -2783.2
34.9375 20 -2786.02
15.875 20.5 -2780.4399
41.1875 6 -2786.51
28.5625 18.5 -2783.3799
45.875 -1.5 -2777.3799
38.375 31 -2785.76
3.125 5 -2773.6799
44.0625 13.5 -2785.8601
17.5625 24.5 -2782.96
29.125 19.5 -2784.8301
46.3125 0 -2776.5601
3.5 6 -2772.9299
45 16 -2782.8301
18.4375 26 -2786.1299
28.4375 -2 -2777.52
47.625 3 -2775.6899
30.3125 23 -2783.8301
3.5625 6 -2774.3501
47.0625 21 -2786.2
19.6875 30 -2780.5701
47.125 -1 -2776.1699
28.75 -1 -2780.02
30.75 24 -2784.3501
47.4375 22 -2785.97
20.125 31 -2781.8301
3.6875 6.5 -2770.8999
47.125 -1 -2776.6799
29.125 0 -2778.6799
31 25 -2781.73
39.6875 -1 -2782.95
8.8125 -1.5 -2780.0901
4.4375 8 -2775.02
47.4375 -1 -2781.9399
29.4375 1 -2779.74
31.6875 26 -2785.73
39.625 -0.5 -2778
13.875 11 -2782.5
6.25 12 -2781.8201
32.3125 28.5 -2782.7
1.0625 30 -2776.21
30.1875 3 -2780.79
16 17 -2780.47
40.125 0.5 -2779.0601
6.875 14 -2780.04
21.75 -1.5 -2779.28
30.5 4 -2779.74
1.5 31 -2778.2
41.1875 3 -2781.49
16.4375 18 -2778.99
24.25 5 -2780.46
9.375 20 -2785.04
30.8125 5.5 -2778
43.25 7.5 -2786.1201
1.25 24 -2779.71
16.8125 19 -2778.75
25.125 7 -2781.3501
9.6875 21 -2784.1399
44.75 12 -2784
31.125 6.5 -2778.3401
11.75 26 -2783.74
2.125 25 -2787.3501
25.6875 8 -2784.3501
17.25 20.5 -2778.1799
45.25 13 -2784.6201
31.875 8.5 -2780.78
26.4375 10 -2783.1001
45.625 14 -2784.3799
19.8125 26 -2782.53
2.4375 26 -2785.99
11.625 26.5 -2778.3799
45.9375 15 -2782.8799
32.25 9 -2783.6799
27.25 12.5 -2782.8899
20.625 28.5 -2782.6899
12.25 28 -2780.26
2.5625 28.5 -2776.0601
47.3125 18 -2788.46
28.8125 15.5 -2788.1399
33 11 -2785.1399
10 -0.5 -2775.53
2.875 30 -2774.53
12.4375 28.5 -2778.03
47.5 18.5 -2785.8601
28.9375 16.5 -2784.1001
33.375 12 -2786.53
12 4 -2782.5701
3.25 31 -2773.8601
40.9375 -1.5 -2782.1399
13.125 30.5 -2776.51
29.875 19 -2785.1001
12 3 -2786.55
33.6875 13 -2787.24
41.25 -0.5 -2781.48
2 20 -2783.3
2.0625 -2 -2777.27
30.3125 20 -2785.9199
34.0625 14 -2787.52
12.875 6 -2781.8
2.375 20.5 -2785.8101
43.9375 6 -2783.2
31 22 -2782.8701
2.8125 -0.5 -2781.4299
35.6875 20 -2783.48
14.1875 10 -2778.48
44.25 7 -2782.28
2.75 21.5 -2786.71
33.125 27.5 -2784.8
36.75 23 -2783.22
14.9375 10.5 -2788.1101
44.8125 9 -2778.97
4.25 3.5 -2779.6299
4.875 28 -2786.03
25.1875 5 -2782.1499
37.1875 23.5 -2788.02
17.125 17.5 -2775.7
45 9.5 -2777.26
5.125 30 -2780.8201
4.875 5 -2781.8999
25.5 6.5 -2780.2
39.1875 30.5 -2784.52
17.5 18.5 -2777.7
45.625 11 -2779.22
5.375 31 -2777.79
4.6875 5 -2774.78
26.8125 9.5 -2782.75
17.9375 19.5 -2777.6599
47 14 -2780.3701
30.5 1 -2779.25
1.5625 15 -2777.5701
5.375 6.5 -2778.3601
29.5 16 -2785.78
18.375 20.5 -2779.03
47.75 16 -2783.8
31.5 4 -2779.28
1.8125 16 -2774.3301
30.8125 19 -2786.3
6.3125 9 -2779.75
19.1875 22 -2782.55
42.4375 -1.5 -2776.9199
33.25 9 -2780.74
2.25 17 -2776.98
31.125 20.5 -2784.9399
7.375 11.5 -2782.97
20.875 26.5 -2780.6799
45.4375 5.5 -2782.0701
2.625 17.5 -2781.1499
34.0625 10.5 -2787.05
35.125 31 -2782.8101
7.4375 12 -2779.3401
21.3125 28 -2779.3999
46 7 -2783.3701
3 18.5 -2781.02
34.375 11.5 -2785.72
9.25 16 -2785.76
24.6875 3.5 -2779.1201
47.5625 10.5 -2786.5801
21.75 28.5 -2781.5801
3.4375 19 -2784.1799
34.75 12.5 -2787.3401
25.25 4.5 -2782.26
9.5 17 -2783.8799
43.9375 -2 -2782.05
10.9375 -1 -2777.95
3.75 20.5 -2782.46
36.75 19.5 -2784
27.8125 11 -2783.54
10.75 20 -2784.71
4.0625 22 -2780.1599
11.25 -0.5 -2781.8999
44.3125 -1 -2781.8
37.0625 20.5 -2784.1899
11 21 -2782.3601
28.6875 13 -2783.8899
12.5 2.5 -2785.1599
4.75 24 -2780.1299
44.75 0 -2781.7
12.5625 25 -2781.4099
38.8125 25.5 -2784.8101
29.1875 14 -2785.52
12.9375 3 -2787.0901
5.125 25 -2781.21
12.875 25.5 -2784.9399
45.5 1.5 -2785.4299
39.125 27 -2782.5901
30 16.5 -2785.79
14.75 9 -2776.1101
6.875 30.5 -2780.8999
12.625 26 -2778
45.625 2.5 -2781.9199
39.1875 27 -2784.53
14.75 9 -2776.3501
31.25 19.5 -2785.23
7.1875 31.5 -2779.9299
12.8125 26 -2780.01
46.1875 3.5 -2783.52
39.4375 28 -2781.1899
17.6875 16.5 -2774.7
0.625 7 -2775.6699
34.0625 27 -2784.46
12.9375 27 -2777.1299
39.875 29 -2784.45
46.25 4 -2779.79
0.625 6.5 -2777.3101
34.625 28.5 -2786.6599
18.0625 18 -2774.55
13.1875 27.5 -2775.1899
31.4375 0.5 -2779.02
23.625 -2 -2780.8
1 7.5 -2778.1201
18.5 19 -2774.5701
46.5625 5 -2779.22
18.9375 19.5 -2776.0901
13.625 28.5 -2775
47.4375 7 -2783.5801
27.75 9 -2780.3799
2.125 10 -2782.96
31.75 2 -2776.49
19.75 21.5 -2780.28
3.4375 15 -2779.72
47.75 8 -2783
32.75 5 -2778.1201
14.5 30.5 -2780
30 14.5 -2784.26
20.1875 22.5 -2778.8899
3.5625 14 -2784.78
33.125 6 -2777.97
44.9375 -1.5 -2777.3701
37.875 14 -2783.98
32.0625 19.5 -2784.9299
5.3125 2 -2787.0701
3.875 15.5 -2782.0901
33.5 7 -2779.6399
45.3125 -0.5 -2776.73
38.9375 17 -2786.01
4.25 16.5 -2782.6499
34.6875 26 -2785.76
5.8125 4.5 -2778.5901
33.8125 8 -2779.1001
46.25 1 -2782.25
39.625 19 -2785.8701
6.25 23.5 -2777.3501
36 30.5 -2780.5901
8.5625 11 -2782.1599
34.1875 9 -2780.79
46.875 3 -2779.8101
40.1875 22 -2779.76
6.625 24.5 -2780.5801
24.6875 -1.5 -2777.76
9.25 13.5 -2781.28
47.125 4 -2778.52
40.5625 23 -2781.1201
34.5625 9.5 -2783.02
8.75 31 -2781.05
25.125 -0.5 -2778.78
11.6875 19 -2784.99
46.5 -1 -2774.8401
40.9375 24 -2783.3501
34.9375 10.5 -2784.23
25.5625 0.5 -2779.5901
0.625 1 -2776.02
47.4375 0.5 -2780.79
11.9375 20 -2783.3799
41.0625 26 -2775.4299
37.375 18 -2785.3401
25.875 1.5 -2777.8
1.375 2.5 -2780.8601
12.625 22 -2781.9199
2.3125 6.5 -2774.1899
37.6875 19 -2785.27
26.5 2.5 -2781.24
41.875 27.5 -2779.54
13 23 -2781.6499
2.75 7 -2778.98
26.8125 3.5 -2780
39.625 26 -2780.05
13.3125 24 -2780.51
41.875 27 -2780.49
3.125 8 -2780.1899
26.9375 3.5 -2781.5901
40.3125 28 -2779.03
13.8125 25 -2781.8501
3.4375 9 -2777.3501
42.25 28 -2781.5
27.3125 4.5 -2781.3899
40.875 28.5 -2788.45
13.75 25.5 -2776.3501
3.4375 9 -2779.28
42.75 29 -2786.51
41.4375 31 -2782.1899
3.8125 10 -2781.22
27.6875 6 -2780.3
14 26.5 -2774.8401
31.8125 -1 -2779.6699
30.25 12 -2783.01
4.1875 11 -2781.0701
14.375 27.5 -2774.23
43.375 31 -2784.04
32.125 0.5 -2778.6299
7.625 22 -2779.53
30.625 13 -2781.45
15.125 29 -2777.72
36.125 5.5 -2779.54
32.8125 2 -2780.99
7.9375 23 -2777.28
32.0625 16.5 -2784.98
15.5 30 -2777.48
33.1875 3 -2781.6799
36.5 6.5 -2782.53
33.1875 20 -2782.8
8.3125 24 -2778.72
15.6875 31 -2775.0701
31.5 13.5 -2782.52
33.875 5 -2782.03
33.75 21 -2785.22
37.25 8 -2785.3899
5.1875 -1 -2777.1299
32 15 -2782.8799
35.625 10.5 -2781.9199
25.625 -1 -2779.1799
6.3125 1 -2781.4199
37.9375 10.5 -2782.6499
35.9375 11.5 -2782.6399
32.5 16 -2784.5801
26 0 -2778.8899
6.5625 2 -2779.72
33.25 18 -2783.99
36.3125 12.5 -2784.1499
26.3125 1 -2777.1299
38.25 11.5 -2784.79
8.75 7.5 -2781.1299
34.6875 21 -2786.99
36.6875 13.5 -2785.26
27.625 4 -2779.1499
10.3125 12 -2780.9099
38.5625 13 -2781.8401
37.75 16.5 -2785.9199
28.0625 5 -2779.2
10.625 13 -2779.8701
38.375 19 -2784.4399
39.9375 17 -2780.8999
38.3125 31 -2784.8601
10.6875 13.5 -2776.02
39.75 23 -2784.6399
40.625 19 -2781.8601
13.6875 21 -2777.47
40.25 26 -2776.04
25.625 -2 -2777.03
40.9375 20.5 -2778.79
13.875 22 -2774.9299
40.5625 27 -2775.75
26.125 -1 -2777.9099
15.4375 25 -2782.99
41.4375 28.5 -2781.9199
41.5625 23 -2776.1299
26.4375 0.5 -2776.8799
16 26 -2784.22
41.4375 28.5 -2782.5
41.9375 24 -2779.6299
26.9375 1.5 -2778.22
15.9375 26.5 -2779.6699
33 0 -2777.3701
42.3125 24.5 -2781.73
28.125 4.5 -2777.6201
34 3 -2780.3201
17.4375 31 -2777.9099
42.9375 27 -2777.53
28.625 5.5 -2779.72
8.8125 3 -2780.5901
34.4375 3.5 -2783.46
43.75 28.5 -2783.0901
10.25 6.5 -2783.8999
35.0625 6 -2781.3
29.25 6.5 -2782.6599
36.0625 9.5 -2778.74
11.25 9.5 -2780.98
44.5 30.5 -2786.46
29.625 7.5 -2782.9199
11.4375 10 -2778.6201
30.125 8.5 -2784.5601
35 -1.5 -2783.21
12.5625 12.5 -2782.1599
30.625 10 -2785.1499
36.0625 1.5 -2786.5
13.1875 14.5 -2779.72
32.625 15 -2784.53
37.0625 5 -2782
14.5625 18.5 -2776.8101
33.0625 16 -2784.9399
37.4375 6 -2784.8
14.6875 19 -2774.03
33.75 18.5 -2782.1201
37.8125 7 -2785.6699
18.4375 28 -2782.9199
34.25 19.5 -2784.28
38.1875 8 -2786.52
18.75 28.5 -2781.8201
34.75 20.5 -2785.9099
40.25 14 -2786.95
19.5625 31 -2781.8701
38.5625 30.5 -2785.8501
40.5625 15 -2786.6201
8.9375 -0.5 -2778.1201
38.75 31.5 -2783.1101
9.6875 1.5 -2777.6299
27.3125 0.5 -2776.73
40.8125 17 -2782.1001
27.8125 1.5 -2779.04
10 2.5 -2776.26
41.1875 18 -2781.48
28.25 2.5 -2779.1599
13.1875 10 -2781.0801
42.375 23 -2775.4399
28.5 4 -2776.54
13.875 12 -2779.5901
42.75 24 -2776.75
14.1875 13 -2778.5
29.0625 5 -2779.3501
43.25 24 -2783.5801
29.5 6 -2779.0701
14.3125 14 -2774.71
43.875 26.5 -2780.6599
14.875 15 -2776.49
30.0625 7 -2781.9299
44.9375 29.5 -2781.1001
30.5 8 -2782.75
16.6875 19.5 -2778.72
37.0625 2.5 -2784.8799
31 9 -2784.3601
17.0625 20.5 -2778.0801
38.0625 6 -2783.2
27.6875 -1.5 -2778.1399
20.5 28.5 -2788.1299
38.4375 6.5 -2784.97
28.0625 -0.5 -2777.1599
20.375 29 -2782.48
39.875 10.5 -2788.6699
28.625 0.5 -2780.1001
41.8125 17.5 -2782.26
29.5 2.5 -2781.77
42.1875 18.5 -2783.8201
29.875 4 -2780.1101
42.4375 20 -2780.1799
30.5625 6 -2778.26
42.6875 21.5 -2775.1699
30.625 6 -2779.55
43.0625 22.5 -2775.3701
31.0625 7 -2779.8701
43.5625 23 -2783.3301
31.6875 8 -2783.8
45.9375 30.5 -2782.73
33.9375 13.5 -2787.21
37.6875 1 -2784.8501
35.0625 16.5 -2784.6299
37.9375 2.5 -2781.04
35.875 19 -2784.05
41.8125 13.5 -2788.3601
38.8125 26.5 -2784.72
39.5 28.5 -2782.6799
43.125 18 -2784.3501
29.25 0 -2778.8301
43.75 21 -2778.1899
30.5625 3 -2781.1899
44.0625 22 -2779.5901
31 4 -2781.0701
44.4375 22.5 -2781.3999
31.25 5 -2778.02
45.25 24.5 -2785.71
31.6875 6.5 -2778.53
45.5 26 -2781.3101
32.0625 7.5 -2778.51
45.8125 27 -2780.5801
32.5625 8.5 -2780.3401
45.875 27 -2782.27
34.125 11.5 -2785.8899
34.625 12.5 -2787.27
46.9375 29.5 -2785.72
36.5 18 -2783.27
37.8125 -2 -2778.79
36.9375 19 -2783.54
38.1875 -1 -2780.6599
37.625 21.5 -2781.79
38.5 0.5 -2776.6499
39.4375 25.5 -2784.97
38.8125 1.5 -2776.46
39.6875 27 -2782.0601
39.1875 2.5 -2779.8501
40 28 -2779.54
39.5 3.5 -2779.8999
31.1875 3.5 -2779.3999
44 17 -2783.1101
31.875 5.5 -2775.78
44.375 18 -2783.3501
32.375 6.5 -2778.0801
34.375 10.5 -2784.21
45 20 -2781.49
37.3125 18 -2785.51
45.4375 21 -2784.6799
37.75 19.5 -2785.3401
46.6875 25.5 -2780.0601
47 27 -2777.8501
39.625 26 -2775.9199
47.375 27.5 -2780.1001
40.125 27 -2776.98
39.4375 0.5 -2777.0901
40.75 28 -2780.24
30.5 -1 -2780.29
40.125 2.5 -2778.1499
31.5625 2.5 -2777.21
40.5 3 -2781.5601
32.5 4.5 -2779.1899
40.875 4 -2783.52
32.6875 5.5 -2775.49
41.9375 6.5 -2787.3301
33.3125 6.5 -2779.8101
43.625 12 -2786.3301
33.75 8 -2779.02
44 13 -2786.1201
34.25 9 -2780.75
45 16.5 -2783.6101
34.75 10 -2782.8101
46.75 21.5 -2788.1699
35.125 11 -2782.3401
47.0625 23 -2784.6001
35.5625 12 -2782.45
40.0625 0 -2778
36.5625 14 -2785.9099
40.375 1.5 -2777.3401
37.375 16 -2785.95
41.125 3 -2781.5901
38.625 19.5 -2785.49
41.5 3.5 -2785.46
38.75 20.5 -2780.9399
39.8125 23 -2784.6399
42.5 6.5 -2787.21
40.5 26 -2775.9299
45.5625 16.5 -2784.29
40.875 27 -2775.0901
46.3125 18 -2787.29
41.5 28 -2778
47 20.5 -2787.3301
41.875 28 -2783.6899
47.3125 21.5 -2786.3701
41.75 28 -2781.6499
40.625 -2 -2782.1101
31.75 -1 -2779.7
41 -0.5 -2781.45
32.0625 0.5 -2778.4399
43.75 7.5 -2785.79
32.5625 1.5 -2779.8401
44.125 8.5 -2786.52
33.0625 2.5 -2781.1799
44.75 11 -2784.1599
33.9375 4.5 -2782.3899
45.125 12 -2784.1499
35.5 9 -2780.8401
37.25 13 -2782.27
46.5 16 -2784.29
37.75 14 -2784.03
47.25 18 -2788.6001
38.6875 16.5 -2785.8401
41.875 -1.5 -2778.1799
39 17.5 -2784.23
44 3.5 -2788.77
39.375 18.5 -2783.9299
44.625 6.5 -2781.6299
40.375 22 -2779.75
44.9375 7 -2782.6699
40.6875 23 -2777.5801
45.5625 10 -2775.9099
41.125 24 -2777.8401
45.9375 11 -2779.3701
41.875 25 -2783.79
46.375 11.5 -2784.02
42.375 27 -2778.26
47.375 14.5 -2784.22
42.9375 28.5 -2780.8401
47.75 15.5 -2783.96
44.1875 30.5 -2786.76
43.3125 -1 -2778.8201
32.4375 -1.5 -2778.78
43.6875 -0.5 -2783.3401
32.75 -0.5 -2777.1799
44.0625 0.5 -2785.6799
33.25 0.5 -2779
33.5625 1.5 -2777.7
45.4375 5 -2784.28
34.6875 3.5 -2782.79
46.125 7 -2783.75
35.375 6 -2780.1499
47.0625 10.5 -2780.3799
36.25 8 -2780.5601
44.8125 1 -2781.6399
36.5625 9 -2779.6399
45.875 4 -2781.04
37.5 11 -2781.8701
46.5 6 -2781.0601
38.4375 13.5 -2782.98
46.9375 7 -2783.6001
39.375 15.5 -2785.79
47.25 7.5 -2785.9099
39.6875 16.5 -2783.9199
47.625 8.5 -2787.01
39.9375 18 -2780.8301
45.0625 -1 -2775.4099
40.375 19 -2780.9299
45.0625 -1 -2777.1899
41.0625 21 -2778.79
45.375 0 -2776.3
41.75 23 -2775.8601
45.75 0.5 -2781.9099
42.375 24 -2779.49
46.125 1.5 -2782.3101
43 25.5 -2783.79
34.375 2 -2777.0601
47.125 5 -2779.76
37.5 9.5 -2782.3799
47.4375 6 -2781.03
37.9375 10.5 -2782.6299
45.9375 -2 -2773.51
39.1875 13.5 -2783.1201
46.25 -1 -2774.99
40.3125 17 -2781.21
47 0 -2781.1399
41.125 19 -2781.3701
47.4375 -2 -2778.6001
41.6875 21.5 -2776.73
47.75 -1.5 -2782.3301
42.0625 22.5 -2775.3401
0.125 27 -2783.4199
42.4375 23.5 -2775.3
0.5625 28 -2784.22
46 31 -2784.8401
1 30 -2779.25
36.25 2.5 -2788.9199
1.1875 30.5 -2776.1699
37.75 7 -2785.72
38.25 8 -2786.6299
0.625 24 -2777.8701
39.1875 10 -2788.6599
1.9375 26.5 -2785.95
41.125 15.5 -2786.73
2.4375 28.5 -2781.98
41.3125 17 -2782.01
2.8125 29.5 -2781.54
42.4375 20 -2780.1799
42.625 21 -2775.9399
2.6875 30 -2774.4299
43.875 23.5 -2783.3701
0.3125 19 -2782.5
45.25 26.5 -2785.3101
0.75 20 -2783.3301
38.0625 5 -2781.5601
1.125 21 -2783.3501
41.75 13.5 -2788.49
1.4375 22 -2781.9399
42.0625 14.5 -2786.1499
3 25.5 -2787.3
42.75 16.5 -2784.1201
3.25 26.5 -2785.46
43.1875 18 -2783.3201
4.1875 29.5 -2781.8501
46 25.5 -2782.25
4.4375 30.5 -2779.95
46.0625 25.5 -2783.02
0.3125 16.5 -2778.75
46.875 27.5 -2782.3201
1.1875 18.5 -2779.6001
47.3125 28.5 -2782.3701
1.8125 20 -2783.1201
37.3125 -0.5 -2782
37.5625 0.5 -2779.3401
2.5 21 -2787.47
38 2 -2778.8501
4.0625 25.5 -2787.79
38.9375 4 -2781.8101
1.375 14.5 -2786.6001
39.3125 5 -2781.51
1.3125 15 -2779.3101
39.8125 6 -2782.8501
1.5 16 -2776.28
42.5 12.5 -2785.79
2.0625 17 -2779.23
42.8125 13.5 -2784.95
2.5 18.5 -2779.5801
44 17 -2783.29
3 19.5 -2781.3999
45.125 20 -2781.46
4.25 23 -2781.95
46.5625 23 -2784.8101
0 7 -2775.6101
47 24.5 -2783.98
37.6875 -1.5 -2779.3501
0.5625 8.5 -2777.98
38.375 1 -2776.6101
2.6875 13 -2787.6101
38.8125 2 -2776.48
3 14 -2786.3501
39.3125 3 -2779.4199
3.5 16 -2781.6399
41 6 -2787.3899
3.9375 17 -2782.4099
43.4375 12.5 -2786.3101
4.3125 18 -2782.3899
43.75 13.5 -2784.5601
5.125 19.5 -2788.22
44.1875 14.5 -2784.8401
5.125 20 -2782.02
44.5625 15.5 -2784.47
5.375 21 -2780.01
45 17 -2784.1799
5.625 22 -2778.53
47.5 23 -2784.21
39.125 -0.5 -2779.49
8.375 29 -2783.51
41 3.5 -2783.6799
8.75 30 -2783.3701
41.9375 6 -2785.54
8.9375 31 -2780.8301
45.4375 15.5 -2781.1899
0.3125 4 -2776.0701
46.6875 17.5 -2788.79
0.6875 5 -2775
47.4375 20 -2786.22
2.25 8.5 -2782.6101
40.6875 -1 -2783.3401
2.6875 9.5 -2782.97
40.9375 0.5 -2780.3799
3.375 11.5 -2780.97
41.375 1.5 -2780.3201
5.25 17 -2780.72
42 2.5 -2785.27
6.4375 21 -2774.48
43.625 7 -2784.0801
9.375 28.5 -2777.4299
44.0625 8 -2784.78
9.6875 29.5 -2775.8899
44.5625 9 -2785.6201
0.1875 -0.5 -2780.6799
45.0625 11 -2779.8401
0.375 0.5 -2777.29
41.3125 -1.5 -2778.8101
0.6875 1.5 -2776.8201
42.3125 0.5 -2781.77
42.75 1.5 -2782.53
1.375 3 -2780.8999
44.375 6 -2782.6599
1.625 4 -2778.6399
44.75 7 -2780.99
1.875 5 -2776.8501
46.4375 11 -2781.02
2.25 6 -2776.96
42.25 -1.5 -2776.79
2.5 7 -2774.23
42.8125 -0.5 -2780.8201
3.3125 8 -2781.3301
45.875 7 -2783.6201
3.5 9 -2777.3899
44.625 0.5 -2781.8
45.9375 3.5 -2783.73
3.5625 9 -2779.1299
46.625 6 -2780.3799
4.125 10.5 -2781.3999
47.25 7 -2783.71
6.125 16 -2782.52
45.5625 -0.5 -2776.8999
7.75 21 -2777.6201
46 0.5 -2776.4199
8.3125 22 -2780.04
47.3125 3.5 -2777.9399
10.6875 28.5 -2779.8799
46.5625 -1.5 -2774.7
10.75 29.5 -2775.3999
47.3125 -0.5 -2781.77
11.0625 30.5 -2774.74
0.1875 31 -2779.5601
1.375 -1.5 -2786.8201
0.5 27 -2785.22
1.5 0 -2775.8501
1.125 30 -2776.2
2.0625 1.5 -2778.4299
1.625 31 -2778.27
3.25 5.5 -2772.78
1.3125 25 -2783.3
3.5 6.5 -2771.1899
2.25 27 -2787.0701
4 7.5 -2772.6499
2.375 29 -2774.77
0.3125 19 -2782.49
4.1875 7.5 -2775.54
0.8125 20 -2783.4299
4.875 9 -2780.1001
1.1875 21 -2780.8
1.625 22 -2781.96
5.25 10 -2780.28
3.5 26.5 -2785.6001
6.25 12 -2783.76
4.6875 30 -2780.1299
7.125 15 -2779.26
2.75 21 -2785.46
7.625 16.5 -2780.96
3.5 23.5 -2781.21
9.125 20 -2785.21
6.5625 31.5 -2778.5601
11.625 27 -2781.6001
1.875 16.5 -2777.52
12.5625 29.5 -2783.8899
2.875 18 -2781.25
12.5 30 -2777.3999
3.75 20 -2782.5601
5.375 4.5 -2787.6499
5 24 -2777.6001
5.3125 6 -2774.01
8.0625 31.5 -2778.1899
0.1875 7.5 -2778.27
6.25 7.5 -2783.4199
0.5625 8.5 -2778
6.4375 8.5 -2780.01
1.1875 9 -2786.8701
7.4375 11 -2783.02
3.75 16 -2781.6399
7.5625 12 -2779.1399
3.75 16 -2782.97
8.5625 14 -2782.4199
4.1875 17 -2782.47
9.4375 16.5 -2784.05
4.25 17 -2782.8401
10.9375 20.5 -2783.1799
6.8125 24 -2779.1799
12.6875 25 -2784.9399
7.25 25 -2780.6799
12.5625 25.5 -2778.24
9 29 -2779.29
12.875 26.5 -2777.1799
9.0625 29 -2780.6101
13.1875 27.5 -2775.4199
9.375 30.5 -2777.5601
13.5625 28.5 -2775.0601
1.375 7 -2776.8201
14.3125 30 -2780.1399
2.3125 8.5 -2782.5901
14.6875 31 -2780.25
2.8125 9.5 -2783.0601
4.375 -1 -2777.49
3.125 11 -2777.8999
10.1875 15 -2777.6499
7.5625 22 -2779.5601
11.75 18.5 -2783.8899
8.4375 24 -2778.75
12.5 20.5 -2782.9299
9 25 -2783.4399
12.8125 21.5 -2781.8701
10.1875 28.5 -2776.8899
13.1875 22.5 -2781.5601
10.5 30 -2773.6599
14.3125 26.5 -2775.1799
11 31 -2775.71
14.6875 27.5 -2774.49
0.125 0.5 -2777.1101
15.375 29 -2778.3799
1 2.5 -2779.8201
15.875 31 -2774.78
1.375 4 -2775.48
5.5 -1.5 -2777.4399
1.875 5 -2777.02
6.25 0 -2783.1699
2.25 6 -2774.1101
6.8125 2 -2779.6599
3.25 8 -2780.22
10.5 11.5 -2782.77
3.6875 9 -2779.2
10.8125 13.5 -2775.8101
4.125 10 -2781.4299
6.375 15.5 -2782.6201
12.875 18 -2783.4099
10 24 -2784.54
13.5625 20 -2781.79
11.1875 27.5 -2780.5701
13.8125 21 -2779.1201
11.5625 28.5 -2777.79
15.375 24.5 -2784.9299
12.0625 29.5 -2778.6001
15.625 25.5 -2782.78
1.625 1 -2775.8999
15.8125 26.5 -2779.74
3.3125 5.5 -2772.74
16.125 27.5 -2779
4.1875 7.5 -2772.77
16.5625 28.5 -2779.5901
5.25 9 -2781.6599
17.25 31 -2777.95
7 13 -2782.1399
7 -1.5 -2782.28
7.375 14.5 -2777.49
8.75 3.5 -2779.01
12.1875 26.5 -2775.72
10.25 7 -2783.8701
13.0625 29 -2774.8701
11.25 10 -2781.25
13.5 30 -2776.5601
13.3125 15.5 -2783.27
14.0625 31 -2780.3301
14.3125 18.5 -2780.79
2.5 -1.5 -2778.25
16.8125 24.5 -2788.1799
3 -1 -2781.54
17.1875 25.5 -2787.3501
5.5625 6.5 -2774.04
18.8125 30.5 -2782.3101
6.5625 7.5 -2783.3701
9.0625 0 -2777.99
6.9375 9 -2779.71
9.75 2 -2777.3201
7.5 9.5 -2786.76
10.125 3 -2776.24
9.625 15.5 -2781.8201
12.3125 8.5 -2780.95
11.5 19.5 -2784.8701
13.8125 12 -2785.3899
12.75 23 -2781.55
13.9375 13.5 -2776
13.875 27 -2773.78
14.3125 14.5 -2775.3401
14.3125 28 -2774.9299
18.125 24.5 -2779.1599
14.75 29 -2774.6599
20.25 30 -2781.21
15.3125 30 -2777.6299
10.9375 0.5 -2778.74
4.5625 -0.5 -2781.3999
12.3125 4 -2782.49
10.25 14 -2777.0701
13.6875 8 -2779.6699
10.6875 15 -2778.53
11.1875 16 -2779.6799
14 9 -2778.25
11.6875 17 -2782.77
14.375 10 -2778.3701
13.75 22.5 -2776.5901
14.75 24.5 -2782.3
15.4375 12.5 -2782.01
16.4375 29 -2779.4399
16.5625 16 -2781.5701
17.3125 31 -2778.49
16.6875 16.5 -2777.4099
5.4375 -1 -2777.3899
16.9375 17.5 -2775.96
5.9375 -0.5 -2782.3601
17.4375 19 -2777.1799
6.8125 2 -2779.46
17.8125 20 -2777.1699
11.625 14 -2777.3501
19 22 -2782.4199
15.25 22.5 -2782.0801
19.5 24 -2778.21
11.4375 9.5 -2781.05
20.25 25.5 -2783.6101
14.875 18.5 -2775.25
20.8125 27.5 -2780.48
15.875 20.5 -2779.51
11.1875 -2 -2777.5
18.6875 26.5 -2786.0901
11.875 -0.5 -2782.22
9.125 0 -2778.1799
12.3125 1.5 -2777.3101
13.5625 10.5 -2781.0801
13.4375 3.5 -2783
14.4375 13 -2778.3201
14.5 7 -2780.51
16.25 17 -2780.45
15.125 9 -2778.4099
16.625 18 -2779.1101
15.875 11 -2778.7
17.0625 19.5 -2778.8601
17.875 17 -2773.51
17.5 20.5 -2778.24
18.3125 18 -2774.02
21.1875 29 -2782.53
18.8125 19.5 -2775.76
11.125 1 -2779.0801
20 22 -2780.6001
12.625 3.5 -2787.26
21.25 25 -2782.3201
14.1875 9 -2778
21.8125 27 -2778.55
15.3125 10 -2788.02
22.0625 28 -2776.8601
17.25 16.5 -2775.8501
22.625 29.5 -2779
18.625 19.5 -2777.8899
12.9375 -1 -2780.51
19.0625 20.5 -2778.76
13.25 0 -2779.4099
19.9375 23 -2778.8401
14.5 3 -2780.8
21.25 26 -2777.1699
14.9375 4 -2780.71
21.625 27.5 -2774.8601
15.3125 5 -2781.3401
22.625 29 -2779.04
15.75 6.5 -2782.24
11.125 -2 -2777.47
11.625 -1 -2780.78
16.3125 8.5 -2778.1201
12.4375 1.5 -2777.52
16.6875 9.5 -2778.1799
14.6875 6.5 -2780.51
16.875 10.5 -2775.1699
15.125 8 -2778.73
17.5 11.5 -2779.05
18.5625 16.5 -2775.8601
18.25 13 -2783.4299
19 18 -2775.3101
19 15 -2783.1799
19.25 17 -2775.6001
19.4375 19 -2775.55
20.1875 19 -2777.9399
19.9375 20 -2777.6201
22.25 24.5 -2779.4199
20.375 21 -2777.4099
22.4375 25.5 -2776.3899
20.875 22 -2778.9199
22.5625 26 -2773.3899
23.0625 27.5 -2773.98
22.1875 25 -2779.22
23.625 28.5 -2776.3701
22.5 26.5 -2774.6399
14.25 -2 -2778.3101
23 27.5 -2776.8999
14.625 -1 -2777.74
23.4375 28.5 -2776.54
15.25 0.5 -2781.47
15.625 1.5 -2780.9099
24 29.5 -2780.1001
16.8125 4.5 -2781.02
17.9375 8 -2780.4199
25 31.5 -2783.1599
13.5 0 -2777.8201
18.75 10 -2780.9099
15.3125 4 -2781.8999
24 25 -2777.71
